ply
format ascii 1.0
element vertex 1580
property float32 x
property float32 y
property float32 z
property float32 I
end_header
-8.9121 10.6138 -1.7017 0.9457
-10.1248 9.4641 -1.7017 0.9457
-11.1902 8.1767 -1.7017 0.9457
-12.0930 6.7705 -1.7017 0.9457
-12.8200 5.2658 -1.7017 0.9457
-13.3606 3.6845 -1.7017 0.9457
-13.7069 2.0497 -1.7017 0.9457
-13.8539 0.3851 -1.7017 0.9457
-13.7996 -1.2851 -1.7017 0.9457
-13.5446 -2.9366 -1.7017 0.9457
-13.0927 -4.5454 -1.7017 0.9457
-12.4505 -6.0881 -1.7017 0.9457
-10.0668 -6.5302 -1.4733 0.9528
-10.6350 -8.8869 -1.7017 0.9457
-9.4881 -10.1023 -1.7017 0.9457
-8.2032 -11.1708 -1.7017 0.9457
-6.7991 -12.0769 -1.7017 0.9457
-5.2962 -12.8074 -1.7017 0.9457
-3.7163 -13.3518 -1.7017 0.9457
-2.0823 -13.7020 -1.7017 0.9457
-0.4180 -13.8530 -1.7017 0.9457
1.2523 -13.8026 -1.7017 0.9457
2.9044 -13.5515 -1.7017 0.9457
4.5143 -13.1035 -1.7017 0.9457
3.7151 -7.6434 -1.0435 0.9663
7.5148 -11.6451 -1.7017 0.9457
5.2633 -6.3290 -1.0107 0.9674
9.2234 -8.7039 -1.5571 0.9502
10.2039 -7.5305 -1.5571 0.9502
11.0360 -6.2477 -1.5571 0.9502
12.7948 -5.3266 -1.7017 0.9457
13.3429 -3.7479 -1.7017 0.9457
13.6970 -2.1148 -1.7017 0.9457
13.8520 -0.4509 -1.7017 0.9457
13.8055 1.2195 -1.7017 0.9457
13.5584 2.8722 -1.7017 0.9457
13.0758 4.4701 -1.6967 0.9458
11.3631 5.4897 -1.5495 0.9504
10.6198 6.8175 -1.5495 0.9504
9.7221 8.0460 -1.5495 0.9504
8.6830 9.1576 -1.5495 0.9504
7.0927 9.5630 -1.4619 0.9532
5.0279 8.8325 -1.2479 0.9599
2.2309 5.3233 -0.7087 0.9770
3.4415 12.1414 -1.5495 0.9504
1.9553 12.4673 -1.5495 0.9504
0.4405 12.6120 -1.5495 0.9504
-1.0806 12.5734 -1.5495 0.9504
-2.5860 12.3519 -1.5495 0.9504
-4.4520 13.1248 -1.7017 0.9457
-5.9993 12.4935 -1.7017 0.9457
-7.4593 11.6807 -1.7017 0.9457
-8.8110 10.6980 -1.7017 0.9457
-10.0345 9.5598 -1.7017 0.9457
-11.1121 8.2825 -1.7017 0.9457
-12.0282 6.8850 -1.7017 0.9457
-12.7694 5.3873 -1.7017 0.9457
-13.3249 3.8112 -1.7017 0.9457
-13.6868 2.1798 -1.7017 0.9457
-13.8497 0.5167 -1.7017 0.9457
-13.8112 -1.1540 -1.7017 0.9457
-13.5719 -2.8078 -1.7017 0.9457
-13.1353 -4.4209 -1.7017 0.9457
-12.5077 -5.9696 -1.7017 0.9457
-10.0668 -6.3951 -1.4644 0.9531
-10.7189 -8.7855 -1.7017 0.9457
-9.5836 -10.0117 -1.7017 0.9457
-8.3089 -11.0924 -1.7017 0.9457
-6.9135 -12.0118 -1.7017 0.9457
-5.4175 -12.7566 -1.7017 0.9457
-3.8428 -13.3159 -1.7017 0.9457
-2.2123 -13.6816 -1.7017 0.9457
-0.5495 -13.8484 -1.7017 0.9457
1.1212 -13.8139 -1.7017 0.9457
2.7756 -13.5785 -1.7017 0.9457
4.3897 -13.1457 -1.7017 0.9457
5.9399 -12.5219 -1.7017 0.9457
4.8280 -7.6400 -1.1097 0.9642
8.7601 -10.7397 -1.7017 0.9457
9.1403 -8.7911 -1.5571 0.9502
10.1319 -7.6271 -1.5571 0.9502
10.9762 -6.3522 -1.5571 0.9502
12.7437 -5.4479 -1.7017 0.9457
13.3067 -3.8744 -1.7017 0.9457
13.6763 -2.2447 -1.7017 0.9457
13.8470 -0.5824 -1.7017 0.9457
13.8165 1.0884 -1.7017 0.9457
13.5851 2.7434 -1.7017 0.9457
13.1333 4.3509 -1.6988 0.9458
11.4147 5.3816 -1.5495 0.9504
10.6841 6.7163 -1.5495 0.9504
9.7981 7.9533 -1.5495 0.9504
8.7696 9.0748 -1.5495 0.9504
7.2342 9.5626 -1.4723 0.9528
5.1293 8.8148 -1.2522 0.9597
2.3053 5.3574 -0.7161 0.9768
3.5567 12.1081 -1.5495 0.9504
2.0736 12.4482 -1.5495 0.9504
0.5602 12.6073 -1.5495 0.9504
-0.9612 12.5831 -1.5495 0.9504
-2.4686 12.3759 -1.5495 0.9504
-4.3272 13.1664 -1.7017 0.9457
-5.8804 12.5499 -1.7017 0.9457
-7.3481 11.7510 -1.7017 0.9457
-8.7090 10.7812 -1.7017 0.9457
-9.9432 9.6546 -1.7017 0.9457
-11.0329 8.3877 -1.7017 0.9457
-11.9623 6.9989 -1.7017 0.9457
-12.7177 5.5083 -1.7017 0.9457
-13.2882 3.9376 -1.7017 0.9457
-13.6655 2.3097 -1.7017 0.9457
-13.8441 0.6482 -1.7017 0.9457
-13.8215 -1.0227 -1.7017 0.9457
-13.5979 -2.6788 -1.7017 0.9457
-13.1767 -4.2960 -1.7017 0.9457
-12.5639 -5.8506 -1.7017 0.9457
-10.0668 -6.2618 -1.4557 0.9533
-10.8018 -8.6834 -1.7017 0.9457
-9.6782 -9.9203 -1.7017 0.9457
-8.4139 -11.0130 -1.7017 0.9457
-7.0272 -11.9456 -1.7017 0.9457
-5.5384 -12.7045 -1.7017 0.9457
-3.9691 -13.2788 -1.7017 0.9457
-2.3421 -13.6600 -1.7017 0.9457
-0.6810 -13.8425 -1.7017 0.9457
0.9899 -13.8239 -1.7017 0.9457
2.6465 -13.6043 -1.7017 0.9457
4.2646 -13.1868 -1.7017 0.9457
5.8207 -12.5777 -1.7017 0.9457
5.4348 -8.7837 -1.2683 0.9592
7.0382 -8.7980 -1.3834 0.9556
9.0564 -8.8774 -1.5571 0.9502
10.0590 -7.7229 -1.5571 0.9502
10.9154 -6.4561 -1.5571 0.9502
12.6914 -5.5686 -1.7017 0.9457
13.2693 -4.0006 -1.7017 0.9457
13.6544 -2.3745 -1.7017 0.9457
13.8409 -0.7139 -1.7017 0.9457
13.8262 0.9571 -1.7017 0.9457
13.6105 2.6142 -1.7017 0.9457
13.1898 4.2310 -1.7008 0.9457
11.4653 5.2729 -1.5495 0.9504
10.7474 6.6145 -1.5495 0.9504
9.8731 7.8599 -1.5495 0.9504
8.8554 8.9911 -1.5495 0.9504
7.3776 9.5622 -1.4829 0.9525
5.6893 9.5669 -1.3667 0.9561
4.2810 9.6944 -1.3012 0.9582
3.6715 12.0738 -1.5495 0.9504
2.1916 12.4280 -1.5495 0.9504
0.6800 12.6014 -1.5495 0.9504
-0.8417 12.5916 -1.5495 0.9504
-2.3509 12.3988 -1.5495 0.9504
-4.2020 13.2069 -1.7017 0.9457
-5.7609 12.6052 -1.7017 0.9457
-7.2362 11.8202 -1.7017 0.9457
-8.6061 10.8634 -1.7017 0.9457
-9.8511 9.7486 -1.7017 0.9457
-10.9528 8.4922 -1.7017 0.9457
-11.8953 7.1121 -1.7017 0.9457
-12.6648 5.6287 -1.7017 0.9457
-13.2502 4.0636 -1.7017 0.9457
-13.6429 2.4393 -1.7017 0.9457
-13.8373 0.7796 -1.7017 0.9457
-13.8306 -0.8915 -1.7017 0.9457
-13.6228 -2.5496 -1.7017 0.9457
-13.2169 -4.1706 -1.7017 0.9457
-12.6188 -5.7310 -1.7017 0.9457
-10.0668 -6.1300 -1.4472 0.9536
-10.8838 -8.5804 -1.7017 0.9457
-9.7720 -9.8279 -1.7017 0.9457
-8.5181 -10.9326 -1.7017 0.9457
-7.1404 -11.8783 -1.7017 0.9457
-5.6589 -12.6514 -1.7017 0.9457
-4.0951 -13.2405 -1.7017 0.9457
-2.4717 -13.6371 -1.7017 0.9457
-0.8125 -13.8355 -1.7017 0.9457
0.8586 -13.8327 -1.7017 0.9457
2.5172 -13.6288 -1.7017 0.9457
4.1392 -13.2268 -1.7017 0.9457
5.7010 -12.6324 -1.7017 0.9457
3.7742 -6.2314 -0.8945 0.9711
8.5545 -10.9042 -1.7017 0.9457
8.7714 -8.7630 -1.5224 0.9513
9.9853 -7.8181 -1.5571 0.9502
10.3438 -6.2514 -1.4840 0.9525
12.6379 -5.6888 -1.7017 0.9457
13.2307 -4.1264 -1.7017 0.9457
13.6312 -2.5041 -1.7017 0.9457
13.8335 -0.8453 -1.7017 0.9457
13.8347 0.8258 -1.7017 0.9457
13.6347 2.4849 -1.7017 0.9457
13.2365 4.1078 -1.7017 0.9457
11.5149 5.1638 -1.5495 0.9504
10.8097 6.5122 -1.5495 0.9504
9.9473 7.7658 -1.5495 0.9504
8.9404 8.9066 -1.5495 0.9504
7.5233 9.5618 -1.4939 0.9522
5.8127 9.5666 -1.3745 0.9559
4.3599 9.6245 -1.2973 0.9583
3.7860 12.0384 -1.5495 0.9504
2.3096 12.4066 -1.5495 0.9504
0.7996 12.5944 -1.5495 0.9504
-0.7220 12.5990 -1.5495 0.9504
-2.2331 12.4206 -1.5495 0.9504
-4.0763 13.2463 -1.7017 0.9457
-5.6410 12.6594 -1.7017 0.9457
-7.1236 11.8884 -1.7017 0.9457
-8.5026 10.9446 -1.7017 0.9457
-9.7581 9.8418 -1.7017 0.9457
-10.8716 8.5958 -1.7017 0.9457
-11.8272 7.2248 -1.7017 0.9457
-12.6107 5.7488 -1.7017 0.9457
-13.2110 4.1893 -1.7017 0.9457
-13.6191 2.5689 -1.7017 0.9457
-13.8293 0.9109 -1.7017 0.9457
-13.8384 -0.7601 -1.7017 0.9457
-13.6463 -2.4201 -1.7017 0.9457
-13.2559 -4.0450 -1.7017 0.9457
-12.6727 -5.6110 -1.7017 0.9457
-10.1293 -6.0369 -1.4479 0.9536
-10.9648 -8.4767 -1.7017 0.9457
-9.8648 -9.7347 -1.7017 0.9457
-8.6215 -10.8512 -1.7017 0.9457
-7.2528 -11.8100 -1.7017 0.9457
-5.7787 -12.5971 -1.7017 0.9457
-4.2206 -13.2010 -1.7017 0.9457
-2.6011 -13.6130 -1.7017 0.9457
-0.9438 -13.8271 -1.7017 0.9457
0.7272 -13.8402 -1.7017 0.9457
2.3877 -13.6521 -1.7017 0.9457
4.0134 -13.2655 -1.7017 0.9457
3.6453 -8.2863 -1.1115 0.9642
3.7140 -6.2656 -0.8943 0.9711
8.4506 -10.9849 -1.7017 0.9457
8.6450 -8.8024 -1.5149 0.9515
7.9120 -6.3170 -1.2431 0.9600
10.2978 -6.3579 -1.4860 0.9524
12.5833 -5.8086 -1.7017 0.9457
13.1909 -4.2520 -1.7017 0.9457
13.6068 -2.6335 -1.7017 0.9457
13.8248 -0.9767 -1.7017 0.9457
13.8419 0.6943 -1.7017 0.9457
13.6577 2.3552 -1.7017 0.9457
13.2750 3.9819 -1.7017 0.9457
11.5634 5.0542 -1.5495 0.9504
10.8710 6.4093 -1.5495 0.9504
10.0206 7.6710 -1.5495 0.9504
9.0245 8.8213 -1.5495 0.9504
7.6710 9.5614 -1.5051 0.9518
5.9376 9.5662 -1.3824 0.9556
4.4704 9.6242 -1.3030 0.9581
3.9001 12.0019 -1.5495 0.9504
2.4273 12.3841 -1.5495 0.9504
0.9191 12.5862 -1.5495 0.9504
-0.6024 12.6053 -1.5495 0.9504
-2.1151 12.4412 -1.5495 0.9504
-3.9464 13.2708 -1.7000 0.9457
-5.5205 12.7123 -1.7017 0.9457
-7.0104 11.9555 -1.7017 0.9457
-8.3983 11.0249 -1.7017 0.9457
-9.6642 9.9339 -1.7017 0.9457
-10.7895 8.6986 -1.7017 0.9457
-11.7580 7.3368 -1.7017 0.9457
-12.5556 5.8683 -1.7017 0.9457
-13.1706 4.3145 -1.7017 0.9457
-13.5941 2.6980 -1.7017 0.9457
-13.8200 1.0423 -1.7017 0.9457
-0.4944 9.7707 -1.5495 0.9612
-1.6667 9.6402 -1.5495 0.9612
-2.8241 9.4004 -1.5546 0.9610
-4.3073 9.8430 -1.7017 0.9574
-5.4606 9.2530 -1.7017 0.9574
-6.5346 8.5285 -1.7017 0.9574
-7.5135 7.6801 -1.7017 0.9574
-8.3833 6.7199 -1.7017 0.9574
-9.1311 5.6621 -1.7017 0.9574
-9.7462 4.5220 -1.7017 0.9574
-10.2196 3.3161 -1.7017 0.9574
-10.5444 2.0620 -1.7017 0.9574
-10.7159 0.7779 -1.7017 0.9574
-10.7317 -0.5174 -1.7017 0.9574
-10.5914 -1.8053 -1.7017 0.9574
-10.2971 -3.0669 -1.7017 0.9574
-9.8531 -4.2839 -1.7017 0.9574
-9.2659 -5.4387 -1.7017 0.9574
-8.5440 -6.5143 -1.7017 0.9574
-7.6979 -7.4953 -1.7017 0.9574
-6.7398 -8.3673 -1.7017 0.9574
-5.6838 -9.1176 -1.7017 0.9574
-4.5451 -9.7354 -1.7017 0.9574
-3.3403 -10.2117 -1.7017 0.9574
-2.0870 -10.5395 -1.7017 0.9574
-0.8034 -10.7141 -1.7017 0.9574
0.4920 -10.7329 -1.7017 0.9574
1.7801 -10.5956 -1.7017 0.9574
3.0425 -10.3044 -1.7017 0.9574
3.3270 -7.7022 -1.3289 0.9666
3.6940 -6.3278 -1.1605 0.9708
5.9423 -7.8322 -1.5571 0.9610
6.8417 -7.0601 -1.5571 0.9610
7.6417 -6.1853 -1.5571 0.9610
9.1041 -5.7054 -1.7017 0.9574
9.7246 -4.5682 -1.7017 0.9574
10.2037 -3.3646 -1.7017 0.9574
10.5345 -2.1120 -1.7017 0.9574
10.7121 -0.8288 -1.7017 0.9574
10.7340 0.4665 -1.7017 0.9574
10.5998 1.7550 -1.7017 0.9574
10.3116 3.0180 -1.7017 0.9574
9.8677 4.2346 -1.7007 0.9574
8.4606 4.9121 -1.5495 0.9612
7.8079 5.8947 -1.5495 0.9612
7.0417 6.7916 -1.5495 0.9612
6.1731 7.5897 -1.5495 0.9612
5.2148 8.2775 -1.5495 0.9612
4.1806 8.8449 -1.5495 0.9612
3.0857 9.2838 -1.5495 0.9612
1.9459 9.5877 -1.5495 0.9612
0.7778 9.7522 -1.5495 0.9612
-0.4016 9.7749 -1.5495 0.9612
-1.5751 9.6556 -1.5495 0.9612
-2.7258 9.3958 -1.5495 0.9612
-4.2136 9.8834 -1.7017 0.9574
-5.3725 9.3044 -1.7017 0.9574
-6.4533 8.5902 -1.7017 0.9574
-7.4403 7.7511 -1.7017 0.9574
-8.3191 6.7992 -1.7017 0.9574
-9.0769 5.7486 -1.7017 0.9574
-9.7028 4.6143 -1.7017 0.9574
-10.1877 3.4130 -1.7017 0.9574
-10.5244 2.1620 -1.7017 0.9574
-10.7081 0.8797 -1.7017 0.9574
-10.7361 -0.4155 -1.7017 0.9574
-10.6081 -1.7046 -1.7017 0.9574
-10.3258 -2.9690 -1.7017 0.9574
-9.8934 -4.1902 -1.7017 0.9574
-9.3172 -5.3504 -1.7017 0.9574
-8.6055 -6.4329 -1.7017 0.9574
-7.7687 -7.4219 -1.7017 0.9574
-6.8190 -8.3029 -1.7017 0.9574
-5.7701 -9.0633 -1.7017 0.9574
-4.6373 -9.6918 -1.7017 0.9574
-3.4372 -10.1795 -1.7017 0.9574
-2.1870 -10.5192 -1.7017 0.9574
-0.9051 -10.7060 -1.7017 0.9574
0.3900 -10.7371 -1.7017 0.9574
1.6794 -10.6121 -1.7017 0.9574
2.9445 -10.3328 -1.7017 0.9574
3.3243 -7.9011 -1.3577 0.9659
3.8774 -6.7894 -1.2383 0.9688
4.6932 -6.3094 -1.2455 0.9687
6.7744 -7.1248 -1.5571 0.9610
7.5827 -6.2576 -1.5571 0.9610
9.0495 -5.7916 -1.7017 0.9574
9.6808 -4.6603 -1.7017 0.9574
10.1713 -3.4613 -1.7017 0.9574
10.5140 -2.2120 -1.7017 0.9574
10.7038 -0.9305 -1.7017 0.9574
7.5229 0.2554 -1.1922 0.9700
10.6160 1.6543 -1.7017 0.9574
10.3398 2.9199 -1.7017 0.9574
9.9132 4.1431 -1.7017 0.9574
8.5069 4.8315 -1.5495 0.9612
7.8635 5.8203 -1.5495 0.9612
7.1059 6.7244 -1.5495 0.9612
6.2449 7.5307 -1.5495 0.9612
5.2931 8.2276 -1.5495 0.9612
4.2644 8.8049 -1.5495 0.9612
3.1737 9.2541 -1.5495 0.9612
2.0369 9.5688 -1.5495 0.9612
0.8704 9.7444 -1.5495 0.9612
-0.3087 9.7783 -1.5495 0.9612
-1.4833 9.6701 -1.5495 0.9612
-2.6364 9.4213 -1.5495 0.9612
-4.1196 9.9230 -1.7017 0.9574
-5.2839 9.3550 -1.7017 0.9574
-6.3714 8.6511 -1.7017 0.9574
-7.3663 7.8214 -1.7017 0.9574
-8.2541 6.8779 -1.7017 0.9574
-9.0219 5.8345 -1.7017 0.9574
-9.6586 4.7063 -1.7017 0.9574
-10.1548 3.5096 -1.7017 0.9574
-10.5034 2.2619 -1.7017 0.9574
-10.6992 0.9813 -1.7017 0.9574
-10.7396 -0.3135 -1.7017 0.9574
-10.6238 -1.6038 -1.7017 0.9574
-10.3535 -2.8708 -1.7017 0.9574
-9.9327 -4.0960 -1.7017 0.9574
-9.3675 -5.2617 -1.7017 0.9574
-8.6662 -6.3509 -1.7017 0.9574
-7.8388 -7.3478 -1.7017 0.9574
-6.8975 -8.2378 -1.7017 0.9574
-5.8559 -9.0081 -1.7017 0.9574
-4.7292 -9.6474 -1.7017 0.9574
-3.5337 -10.1464 -1.7017 0.9574
-2.2868 -10.4980 -1.7017 0.9574
-1.0067 -10.6969 -1.7017 0.9574
0.2880 -10.7403 -1.7017 0.9574
1.5786 -10.6275 -1.7017 0.9574
2.8462 -10.3603 -1.7017 0.9574
3.3214 -8.1088 -1.3879 0.9651
3.7917 -6.7882 -1.2315 0.9690
4.6051 -6.3153 -1.2379 0.9688
6.7064 -7.1888 -1.5571 0.9610
7.5229 -6.3293 -1.5571 0.9610
8.9160 -5.8262 -1.6869 0.9578
9.6361 -4.7521 -1.7017 0.9574
10.1380 -3.5578 -1.7017 0.9574
10.4925 -2.3117 -1.7017 0.9574
10.6945 -1.0321 -1.7017 0.9574
7.4771 0.1828 -1.1846 0.9702
10.6313 1.5534 -1.7017 0.9574
10.3670 2.8216 -1.7017 0.9574
9.9521 4.0488 -1.7017 0.9574
8.5524 4.7505 -1.5495 0.9612
7.9185 5.7453 -1.5495 0.9612
7.1694 6.6566 -1.5495 0.9612
6.3161 7.4711 -1.5495 0.9612
5.3710 8.1770 -1.5495 0.9612
4.3478 8.7640 -1.5495 0.9612
3.2614 9.2235 -1.5495 0.9612
2.1276 9.5490 -1.5495 0.9612
0.9629 9.7357 -1.5495 0.9612
-0.2158 9.7808 -1.5495 0.9612
-1.3914 9.6837 -1.5495 0.9612
-2.5468 9.4459 -1.5495 0.9612
-4.0252 9.9617 -1.7017 0.9574
-5.1949 9.4048 -1.7017 0.9574
-6.2890 8.7112 -1.7017 0.9574
-7.2917 7.8910 -1.7017 0.9574
-8.1885 6.9560 -1.7017 0.9574
-8.9661 5.9199 -1.7017 0.9574
-9.6134 4.7978 -1.7017 0.9574
-10.1210 3.6059 -1.7017 0.9574
-10.4814 2.3615 -1.7017 0.9574
-10.6894 1.0829 -1.7017 0.9574
-10.7421 -0.2115 -1.7017 0.9574
-10.6385 -1.5029 -1.7017 0.9574
-10.3803 -2.7723 -1.7017 0.9574
-9.9712 -4.0015 -1.7017 0.9574
-9.4171 -5.1725 -1.7017 0.9574
-8.7261 -6.2683 -1.7017 0.9574
-7.9082 -7.2730 -1.7017 0.9574
-6.9754 -8.1719 -1.7017 0.9574
-5.9412 -8.9520 -1.7017 0.9574
-4.8206 -9.6020 -1.7017 0.9574
-3.6299 -10.1124 -1.7017 0.9574
-2.3864 -10.4758 -1.7017 0.9574
-1.1082 -10.6868 -1.7017 0.9574
0.1860 -10.7425 -1.7017 0.9574
1.4776 -10.6420 -1.7017 0.9574
2.0246 -7.6532 -1.2538 0.9684
3.3008 -8.2819 -1.4121 0.9645
3.7003 -6.7748 -1.2226 0.9692
4.5196 -6.3233 -1.2310 0.9690
6.6379 -7.2521 -1.5571 0.9610
7.4624 -6.4005 -1.5571 0.9610
8.7401 -5.8305 -1.6640 0.9583
9.5905 -4.8433 -1.7017 0.9574
10.1038 -3.6539 -1.7017 0.9574
10.4701 -2.4113 -1.7017 0.9574
10.6842 -1.1336 -1.7017 0.9574
10.7429 0.1605 -1.7017 0.9574
10.6455 1.4523 -1.7017 0.9574
10.3934 2.7230 -1.7017 0.9574
9.9901 3.9541 -1.7017 0.9574
8.5971 4.6691 -1.5495 0.9612
7.9727 5.6699 -1.5495 0.9612
7.2323 6.5882 -1.5495 0.9612
6.3868 7.4108 -1.5495 0.9612
5.4484 8.1256 -1.5495 0.9612
4.4309 8.7223 -1.5495 0.9612
3.3489 9.1922 -1.5495 0.9612
2.2182 9.5284 -1.5495 0.9612
1.0553 9.7261 -1.5495 0.9612
-0.1229 9.7824 -1.5495 0.9612
-1.2994 9.6965 -1.5495 0.9612
-2.4570 9.4696 -1.5495 0.9612
-3.9304 9.9994 -1.7017 0.9574
-5.1053 9.4537 -1.7017 0.9574
-6.2060 8.7705 -1.7017 0.9574
-7.2165 7.9598 -1.7017 0.9574
-8.1220 7.0334 -1.7017 0.9574
-8.9095 6.0048 -1.7017 0.9574
-9.5675 4.8888 -1.7017 0.9574
-10.0863 3.7018 -1.7017 0.9574
-10.4585 2.4610 -1.7017 0.9574
-10.6787 1.1843 -1.7017 0.9574
-10.7436 -0.1095 -1.7017 0.9574
-10.6523 -1.4018 -1.7017 0.9574
-10.4062 -2.6737 -1.7017 0.9574
-10.0087 -3.9066 -1.7017 0.9574
-9.4658 -5.0828 -1.7017 0.9574
-8.7852 -6.1852 -1.7017 0.9574
-7.9770 -7.1976 -1.7017 0.9574
-7.0527 -8.1053 -1.7017 0.9574
-6.0259 -8.8952 -1.7017 0.9574
-4.9115 -9.5558 -1.7017 0.9574
-3.7257 -10.0775 -1.7017 0.9574
-2.4858 -10.4526 -1.7017 0.9574
-1.2097 -10.6758 -1.7017 0.9574
0.0840 -10.7438 -1.7017 0.9574
1.3765 -10.6556 -1.7017 0.9574
1.9470 -7.6534 -1.2508 0.9685
3.5530 -9.1668 -1.5571 0.9610
3.6166 -6.7736 -1.2162 0.9694
4.4238 -6.3153 -1.2212 0.9693
6.5687 -7.3148 -1.5571 0.9610
7.1393 -6.2420 -1.5020 0.9623
8.5689 -5.8346 -1.6419 0.9589
9.5441 -4.9342 -1.7017 0.9574
10.0686 -3.7497 -1.7017 0.9574
10.4467 -2.5106 -1.7017 0.9574
10.6729 -1.2350 -1.7017 0.9574
10.7440 0.0585 -1.7017 0.9574
10.6588 1.3512 -1.7017 0.9574
10.4187 2.6242 -1.7017 0.9574
10.0272 3.8591 -1.7017 0.9574
8.7575 4.6491 -1.5704 0.9606
8.0261 5.5939 -1.5495 0.9612
7.2945 6.5193 -1.5495 0.9612
6.4569 7.3498 -1.5495 0.9612
5.5254 8.0735 -1.5495 0.9612
4.5135 8.6798 -1.5495 0.9612
2.0617 5.4962 -0.9297 0.9765
2.3086 9.5069 -1.5495 0.9612
1.1477 9.7156 -1.5495 0.9612
-0.0300 9.7831 -1.5495 0.9612
-1.2073 9.7084 -1.5495 0.9612
-2.3670 9.4925 -1.5495 0.9612
-3.8353 10.0363 -1.7017 0.9574
-5.0153 9.5018 -1.7017 0.9574
-6.1224 8.8291 -1.7017 0.9574
-7.1405 8.0280 -1.7017 0.9574
-8.0549 7.1103 -1.7017 0.9574
-8.8521 6.0891 -1.7017 0.9574
-9.5206 4.9794 -1.7017 0.9574
-10.0507 3.7974 -1.7017 0.9574
-10.4347 2.5601 -1.7017 0.9574
-10.6669 1.2857 -1.7017 0.9574
-10.7441 -0.0075 -1.7017 0.9574
-10.6651 -1.3006 -1.7017 0.9574
-10.4311 -2.5747 -1.7017 0.9574
-10.0454 -3.8114 -1.7017 0.9574
-9.5136 -4.9927 -1.7017 0.9574
-8.8436 -6.1015 -1.7017 0.9574
-8.0449 -7.1215 -1.7017 0.9574
-7.1294 -8.0380 -1.7017 0.9574
-6.1101 -8.8376 -1.7017 0.9574
-5.0021 -9.5087 -1.7017 0.9574
-3.8213 -10.0416 -1.7017 0.9574
-2.5849 -10.4285 -1.7017 0.9574
-1.3110 -10.6639 -1.7017 0.9574
-0.0180 -10.7441 -1.7017 0.9574
1.2752 -10.6682 -1.7017 0.9574
1.8699 -7.6536 -1.2479 0.9686
3.4657 -9.2002 -1.5571 0.9610
3.5400 -6.7847 -1.2121 0.9695
4.3305 -6.3087 -1.2120 0.9695
6.4989 -7.3769 -1.5571 0.9610
7.0246 -6.2604 -1.4903 0.9626
8.4021 -5.8385 -1.6205 0.9594
9.4968 -5.0246 -1.7017 0.9574
10.0325 -3.8451 -1.7017 0.9574
10.4224 -2.6097 -1.7017 0.9574
10.6607 -1.3363 -1.7017 0.9574
10.7441 -0.0435 -1.7017 0.9574
10.6712 1.2499 -1.7017 0.9574
10.4432 2.5251 -1.7017 0.9574
10.0634 3.7637 -1.7017 0.9574
8.9523 4.6441 -1.5973 0.9600
8.0789 5.5175 -1.5495 0.9612
7.3561 6.4497 -1.5495 0.9612
6.5264 7.2881 -1.5495 0.9612
5.6018 8.0207 -1.5495 0.9612
4.5957 8.6366 -1.5495 0.9612
2.0642 5.3478 -0.9079 0.9771
2.3988 9.4845 -1.5495 0.9612
1.2398 9.7043 -1.5495 0.9612
0.0629 9.7830 -1.5495 0.9612
-1.1150 9.7195 -1.5495 0.9612
-2.2767 9.5146 -1.5495 0.9612
-3.7398 10.0723 -1.7017 0.9574
-4.9248 9.5490 -1.7017 0.9574
-6.0383 8.8868 -1.7017 0.9574
-7.0640 8.0955 -1.7017 0.9574
-7.9870 7.1864 -1.7017 0.9574
-8.7938 6.1729 -1.7017 0.9574
-9.4729 5.0696 -1.7017 0.9574
-10.0142 3.8927 -1.7017 0.9574
-10.4099 2.6591 -1.7017 0.9574
-10.6543 1.3869 -1.7017 0.9574
-10.7437 0.0945 -1.7017 0.9574
-10.6770 -1.1992 -1.7017 0.9574
-10.4551 -2.4755 -1.7017 0.9574
-10.0811 -3.7159 -1.7017 0.9574
-9.5606 -4.9022 -1.7017 0.9574
-8.9011 -6.0172 -1.7017 0.9574
-8.1122 -7.0447 -1.7017 0.9574
-7.2054 -7.9699 -1.7017 0.9574
-6.1938 -8.7792 -1.7017 0.9574
-5.0921 -9.4608 -1.7017 0.9574
-3.9164 -10.0049 -1.7017 0.9574
-2.6838 -10.4035 -1.7017 0.9574
-1.4122 -10.6509 -1.7017 0.9574
-0.1200 -10.7435 -1.7017 0.9574
1.1739 -10.6798 -1.7017 0.9574
1.7931 -7.6537 -1.2451 0.9687
3.3782 -9.2327 -1.5571 0.9610
3.4579 -6.7835 -1.2059 0.9696
4.5727 -6.7991 -1.2978 0.9674
5.3957 -6.2432 -1.3069 0.9671
6.9978 -6.3568 -1.4974 0.9624
8.2395 -5.8424 -1.5998 0.9599
9.4487 -5.1146 -1.7017 0.9574
9.9956 -3.9402 -1.7017 0.9574
10.3971 -2.7086 -1.7017 0.9574
10.6475 -1.4375 -1.7017 0.9574
10.7432 -0.1455 -1.7017 0.9574
10.6826 1.1485 -1.7017 0.9574
10.4667 2.4259 -1.7017 0.9574
10.0986 3.6680 -1.7017 0.9574
9.1539 4.6389 -1.6254 0.9593
8.1309 5.4405 -1.5495 0.9612
7.4170 6.3795 -1.5495 0.9612
6.5953 7.2258 -1.5495 0.9612
5.6777 7.9671 -1.5495 0.9612
4.6775 8.5925 -1.5495 0.9612
2.0886 5.2617 -0.8966 0.9773
2.4888 9.4613 -1.5495 0.9612
1.3319 9.6921 -1.5495 0.9612
0.1558 9.7820 -1.5495 0.9612
-1.0227 9.7296 -1.5495 0.9612
-2.1863 9.5358 -1.5495 0.9612
-3.6440 10.1073 -1.7017 0.9574
-4.8340 9.5953 -1.7017 0.9574
-5.9537 8.9437 -1.7017 0.9574
-6.9868 8.1622 -1.7017 0.9574
-7.9184 7.2620 -1.7017 0.9574
-8.7348 6.2561 -1.7017 0.9574
-9.4243 5.1594 -1.7017 0.9574
-9.9767 3.9876 -1.7017 0.9574
-10.3842 2.7579 -1.7017 0.9574
-10.6406 1.4880 -1.7017 0.9574
-10.7423 0.1966 -1.7017 0.9574
-10.6879 -1.0978 -1.7017 0.9574
-10.4781 -2.3761 -1.7017 0.9574
-10.1160 -3.6199 -1.7017 0.9574
-9.6067 -4.8112 -1.7017 0.9574
-8.9578 -5.9324 -1.7017 0.9574
-8.1787 -6.9674 -1.7017 0.9574
-7.2807 -7.9011 -1.7017 0.9574
-6.2769 -8.7200 -1.7017 0.9574
-5.1817 -9.4120 -1.7017 0.9574
-4.0113 -9.9673 -1.7017 0.9574
-2.7825 -10.3776 -1.7017 0.9574
-1.5133 -10.6370 -1.7017 0.9574
-0.2221 -10.7418 -1.7017 0.9574
1.0724 -10.6905 -1.7017 0.9574
1.7190 -7.6645 -1.2441 0.9687
3.2904 -9.2643 -1.5571 0.9610
3.3766 -6.7824 -1.2000 0.9698
4.4787 -6.7978 -1.2893 0.9676
5.3455 -6.3050 -1.3092 0.9671
7.2140 -6.6793 -1.5571 0.9610
8.0810 -5.8461 -1.5797 0.9604
9.3997 -5.2041 -1.7017 0.9574
9.9577 -4.0349 -1.7017 0.9574
10.3709 -2.8071 -1.7017 0.9574
10.6334 -1.5385 -1.7017 0.9574
10.7413 -0.2476 -1.7017 0.9574
10.6930 1.0470 -1.7017 0.9574
10.4893 2.3264 -1.7017 0.9574
10.1330 3.5719 -1.7017 0.9574
9.3627 4.6335 -1.6546 0.9586
8.1822 5.3630 -1.5495 0.9612
7.4773 6.3088 -1.5495 0.9612
6.6636 7.1629 -1.5495 0.9612
5.7531 7.9128 -1.5495 0.9612
4.7589 8.5477 -1.5495 0.9612
2.1429 5.2527 -0.8985 0.9773
2.5785 9.4373 -1.5495 0.9612
1.4238 9.6789 -1.5495 0.9612
0.2486 9.7800 -1.5495 0.9612
-0.9302 9.7389 -1.5495 0.9612
-2.0956 9.5561 -1.5495 0.9612
-3.5454 10.1345 -1.7005 0.9574
-4.7426 9.6408 -1.7017 0.9574
-5.8684 8.9999 -1.7017 0.9574
-6.9090 8.2282 -1.7017 0.9574
-7.8490 7.3368 -1.7017 0.9574
-8.6750 6.3388 -1.7017 0.9574
-9.3749 5.2487 -1.7017 0.9574
-9.9384 4.0822 -1.7017 0.9574
-10.3575 2.8563 -1.7017 0.9574
-10.6260 1.5890 -1.7017 0.9574
-10.7400 0.2986 -1.7017 0.9574
-10.6979 -0.9962 -1.7017 0.9574
-10.5002 -2.2765 -1.7017 0.9574
-10.1499 -3.5237 -1.7017 0.9574
-9.6520 -4.7197 -1.7017 0.9574
-9.0138 -5.8471 -1.7017 0.9574
-8.2445 -6.8894 -1.7017 0.9574
-7.3554 -7.8316 -1.7017 0.9574
-6.3594 -8.6600 -1.7017 0.9574
-5.2709 -9.3624 -1.7017 0.9574
-4.1058 -9.9287 -1.7017 0.9574
-2.8810 -10.3507 -1.7017 0.9574
-1.6143 -10.6222 -1.7017 0.9574
-0.3241 -10.7393 -1.7017 0.9574
0.9708 -10.7002 -1.7017 0.9574
1.6850 -7.8618 -1.2735 0.9680
3.4996 -10.1582 -1.7017 0.9574
3.3386 -6.8689 -1.2096 0.9695
4.3859 -6.7965 -1.2811 0.9678
6.2862 -7.5590 -1.5571 0.9610
7.1502 -6.7475 -1.5571 0.9610
7.9303 -5.8526 -1.5610 0.9609
9.3499 -5.2931 -1.7017 0.9574
9.9189 -4.1293 -1.7017 0.9574
10.3438 -2.9055 -1.7017 0.9574
10.6183 -1.6395 -1.7017 0.9574
10.7385 -0.3496 -1.7017 0.9574
10.7025 0.9454 -1.7017 0.9574
10.5109 2.2266 -1.7017 0.9574
10.1665 3.4755 -1.7017 0.9574
9.5791 4.6278 -1.6850 0.9578
8.2328 5.2851 -1.5495 0.9612
7.5368 6.2375 -1.5495 0.9612
6.7313 7.0993 -1.5495 0.9612
5.8280 7.8578 -1.5495 0.9612
4.8399 8.5021 -1.5495 0.9612
2.2011 5.2521 -0.9019 0.9772
2.6680 9.4124 -1.5495 0.9612
1.5158 9.6650 -1.5495 0.9612
0.3415 9.7772 -1.5495 0.9612
-0.8377 9.7473 -1.5495 0.9612
-2.0048 9.5756 -1.5495 0.9612
-3.4455 10.1574 -1.6988 0.9575
-4.6508 9.6854 -1.7017 0.9574
-5.7827 9.0552 -1.7017 0.9574
-6.8305 8.2934 -1.7017 0.9574
-7.7790 7.4110 -1.7017 0.9574
-8.6144 6.4209 -1.7017 0.9574
-9.3246 5.3374 -1.7017 0.9574
-9.8992 4.1764 -1.7017 0.9574
-10.3299 2.9546 -1.7017 0.9574
-10.6104 1.6898 -1.7017 0.9574
-10.7367 0.4005 -1.7017 0.9574
-10.7068 -0.8946 -1.7017 0.9574
-10.5213 -2.1767 -1.7017 0.9574
-10.1829 -3.4272 -1.7017 0.9574
-9.6964 -4.6278 -1.7017 0.9574
-9.0689 -5.7612 -1.7017 0.9574
-8.3096 -6.8108 -1.7017 0.9574
-7.4295 -7.7614 -1.7017 0.9574
-6.4413 -8.5992 -1.7017 0.9574
-5.3595 -9.3119 -1.7017 0.9574
-4.1998 -9.8893 -1.7017 0.9574
-2.9791 -10.3229 -1.7017 0.9574
-1.7150 -10.6064 -1.7017 0.9574
-0.4260 -10.7357 -1.7017 0.9574
0.8692 -10.7089 -1.7017 0.9574
2.1517 -10.5265 -1.7017 0.9574
3.4030 -10.1910 -1.7017 0.9574
3.3364 -7.0334 -1.2330 0.9690
4.2942 -6.7952 -1.2731 0.9680
6.2141 -7.6184 -1.5571 0.9610
7.0858 -6.8151 -1.5571 0.9610
7.8546 -5.9127 -1.5571 0.9610
9.2992 -5.3817 -1.7017 0.9574
9.8793 -4.2233 -1.7017 0.9574
10.3158 -3.0036 -1.7017 0.9574
10.6023 -1.7402 -1.7017 0.9574
10.7346 -0.4515 -1.7017 0.9574
10.7110 0.8438 -1.7017 0.9574
10.5316 2.1267 -1.7017 0.9574
10.1990 3.3788 -1.7017 0.9574
9.6807 4.5641 -1.6951 0.9576
8.2826 5.2067 -1.5495 0.9612
7.5957 6.1657 -1.5495 0.9612
6.7985 7.0350 -1.5495 0.9612
5.9023 7.8021 -1.5495 0.9612
4.9204 8.4558 -1.5495 0.9612
2.2597 5.2514 -0.9055 0.9771
2.7573 9.3866 -1.5495 0.9612
1.6075 9.6502 -1.5495 0.9612
0.4343 9.7736 -1.5495 0.9612
-0.7451 9.7548 -1.5495 0.9612
-1.9138 9.5942 -1.5495 0.9612
-3.3455 10.1793 -1.6971 0.9575
-4.5587 9.7291 -1.7017 0.9574
-5.6965 9.1097 -1.7017 0.9574
-6.7515 8.3579 -1.7017 0.9574
-7.7083 7.4846 -1.7017 0.9574
-8.5531 6.5024 -1.7017 0.9574
-9.2735 5.4258 -1.7017 0.9574
-9.8591 4.2702 -1.7017 0.9574
-10.3014 3.0526 -1.7017 0.9574
-10.5939 1.7905 -1.7017 0.9574
-10.7324 0.5025 -1.7017 0.9574
-10.7148 -0.7929 -1.7017 0.9574
-10.5415 -2.0767 -1.7017 0.9574
-10.2150 -3.3304 -1.7017 0.9574
-9.7399 -4.5356 -1.7017 0.9574
-9.1232 -5.6748 -1.7017 0.9574
-8.3739 -6.7316 -1.7017 0.9574
-7.5028 -7.6905 -1.7017 0.9574
-6.5227 -8.5376 -1.7017 0.9574
-5.4477 -9.2606 -1.7017 0.9574
-4.2936 -9.8489 -1.7017 0.9574
-3.0770 -10.2941 -1.7017 0.9574
-1.8157 -10.5896 -1.7017 0.9574
-0.5280 -10.7312 -1.7017 0.9574
0.7674 -10.7167 -1.7017 0.9574
2.0517 -10.5464 -1.7017 0.9574
3.3061 -10.2228 -1.7017 0.9574
3.3340 -7.2042 -1.2573 0.9684
4.2037 -6.7939 -1.2654 0.9682
6.1415 -7.6770 -1.5571 0.9610
7.0208 -6.8821 -1.5571 0.9610
7.7981 -5.9870 -1.5571 0.9610
9.2476 -5.4697 -1.7017 0.9574
9.8387 -4.3169 -1.7017 0.9574
10.2868 -3.1014 -1.7017 0.9574
10.5853 -1.8408 -1.7017 0.9574
10.7299 -0.5534 -1.7017 0.9574
10.7185 0.7420 -1.7017 0.9574
10.5513 2.0266 -1.7017 0.9574
10.2307 3.2818 -1.7017 0.9574
9.7322 4.4759 -1.6966 0.9575
8.3317 5.1278 -1.5495 0.9612
7.6540 6.0932 -1.5495 0.9612
6.8650 6.9701 -1.5495 0.9612
5.9761 7.7458 -1.5495 0.9612
5.0005 8.4087 -1.5495 0.9612
2.3187 5.2508 -0.9091 0.9770
2.8463 9.3600 -1.5495 0.9612
1.6990 9.6345 -1.5495 0.9612
0.5272 9.7690 -1.5495 0.9612
-0.6525 9.7614 -1.5495 0.9612
-1.8225 9.6119 -1.5495 0.9612
-3.2454 10.2002 -1.6954 0.9576
-4.4660 9.7720 -1.7017 0.9574
-5.6097 9.1634 -1.7017 0.9574
-6.6717 8.4217 -1.7017 0.9574
-7.6369 7.5574 -1.7017 0.9574
-8.4909 6.5834 -1.7017 0.9574
-9.2216 5.5135 -1.7017 0.9574
-9.8181 4.3636 -1.7017 0.9574
-10.2719 3.1502 -1.7017 0.9574
-10.5764 1.8910 -1.7017 0.9574
-10.7271 0.6044 -1.7017 0.9574
-10.7219 -0.6911 -1.7017 0.9574
-10.5608 -1.9765 -1.7017 0.9574
-10.2461 -3.2332 -1.7017 0.9574
-9.7825 -4.4428 -1.7017 0.9574
-9.1767 -5.5879 -1.7017 0.9574
-8.4374 -6.6518 -1.7017 0.9574
-7.5755 -7.6189 -1.7017 0.9574
-6.6035 -8.4753 -1.7017 0.9574
-5.5355 -9.2084 -1.7017 0.9574
-4.3869 -9.8077 -1.7017 0.9574
-3.1746 -10.2644 -1.7017 0.9574
-1.9162 -10.5719 -1.7017 0.9574
-0.6299 -10.7257 -1.7017 0.9574
0.6656 -10.7235 -1.7017 0.9574
1.9514 -10.5654 -1.7017 0.9574
3.2088 -10.2538 -1.7017 0.9574
3.3315 -7.3821 -1.2828 0.9677
3.7742 -6.2314 -1.1539 0.9709
6.0683 -7.7350 -1.5571 0.9610
6.9551 -6.9485 -1.5571 0.9610
7.7409 -6.0608 -1.5571 0.9610
9.1953 -5.5573 -1.7017 0.9574
9.7973 -4.4101 -1.7017 0.9574
10.2569 -3.1989 -1.7017 0.9574
10.5673 -1.9412 -1.7017 0.9574
10.7241 -0.6553 -1.7017 0.9574
10.7251 0.6402 -1.7017 0.9574
10.5700 1.9264 -1.7017 0.9574
10.2614 3.1845 -1.7017 0.9574
9.7829 4.3871 -1.6981 0.9575
8.3800 5.0484 -1.5495 0.9612
7.7115 6.0203 -1.5495 0.9612
6.9308 6.9047 -1.5495 0.9612
6.0494 7.6886 -1.5495 0.9612
5.0801 8.3608 -1.5495 0.9612
2.3852 5.2653 -0.9155 0.9769
2.9350 9.3325 -1.5495 0.9612
1.7905 9.6180 -1.5495 0.9612
0.6199 9.7635 -1.5495 0.9612
-0.5597 9.7672 -1.5495 0.9612
-1.7312 9.6288 -1.5495 0.9612
-3.0112 9.7850 -1.6215 0.9594
-4.3730 9.8139 -1.7017 0.9574
-5.5224 9.2163 -1.7017 0.9574
-6.5915 8.4846 -1.7017 0.9574
-7.5647 7.6296 -1.7017 0.9574
-8.4280 6.6637 -1.7017 0.9574
-9.1688 5.6009 -1.7017 0.9574
-9.7762 4.4567 -1.7017 0.9574
-10.2415 3.2477 -1.7017 0.9574
-10.5580 1.9914 -1.7017 0.9574
-10.7209 0.7062 -1.7017 0.9574
-10.7280 -0.5893 -1.7017 0.9574
-10.5791 -1.8762 -1.7017 0.9574
-10.2764 -3.1358 -1.7017 0.9574
-9.8243 -4.3498 -1.7017 0.9574
-9.2293 -5.5006 -1.7017 0.9574
-8.5002 -6.5714 -1.7017 0.9574
-7.6475 -7.5467 -1.7017 0.9574
-6.6837 -8.4122 -1.7017 0.9574
-5.6226 -9.1555 -1.7017 0.9574
-4.4798 -9.7656 -1.7017 0.9574
-3.2719 -10.2338 -1.7017 0.9574
-2.0165 -10.5532 -1.7017 0.9574
-0.7317 -10.7192 -1.7017 0.9574
0.5638 -10.7293 -1.7017 0.9574
1.8510 -10.5835 -1.7017 0.9574
3.1113 -10.2838 -1.7017 0.9574
3.3289 -7.5671 -1.3094 0.9671
3.7140 -6.2656 -1.1536 0.9709
5.9945 -7.7923 -1.5571 0.9610
6.8888 -7.0142 -1.5571 0.9610
7.6829 -6.1341 -1.5571 0.9610
9.1421 -5.6444 -1.7017 0.9574
9.7550 -4.5030 -1.7017 0.9574
10.2260 -3.2963 -1.7017 0.9574
10.5484 -2.0415 -1.7017 0.9574
10.7174 -0.7571 -1.7017 0.9574
10.7307 0.5383 -1.7017 0.9574
10.5879 1.8258 -1.7017 0.9574
10.2912 3.0869 -1.7017 0.9574
9.8329 4.2978 -1.6996 0.9575
8.4275 4.9686 -1.5495 0.9612
7.7683 5.9468 -1.5495 0.9612
6.9961 6.8385 -1.5495 0.9612
6.1222 7.6308 -1.5495 0.9612
5.1592 8.3122 -1.5495 0.9612
4.1213 8.8727 -1.5495 0.9612
3.0235 9.3043 -1.5495 0.9612
1.8817 9.6005 -1.5495 0.9612
0.7125 9.7572 -1.5495 0.9612
-0.4670 9.7720 -1.5495 0.9612
-1.6397 9.6448 -1.5495 0.9612
-2.7886 9.3773 -1.5495 0.9612
-4.2797 9.8550 -1.7017 0.9574
-5.4347 9.2683 -1.7017 0.9574
-6.5106 8.5468 -1.7017 0.9574
-7.4920 7.7011 -1.7017 0.9574
-8.3644 6.7434 -1.7017 0.9574
-9.1152 5.6877 -1.7017 0.9574
-9.7335 4.5493 -1.7017 0.9574
-10.2102 3.3448 -1.7017 0.9574
-10.5386 2.0916 -1.7017 0.9574
-10.7137 0.8080 -1.7017 0.9574
-0.4029 7.9613 -1.5495 0.9680
-1.3581 7.8550 -1.5495 0.9680
-2.5120 8.3616 -1.6971 0.9650
-3.5097 8.0202 -1.7017 0.9650
-4.4494 7.5395 -1.7017 0.9650
-5.3245 6.9492 -1.7017 0.9650
-6.1222 6.2578 -1.7017 0.9650
-6.8308 5.4755 -1.7017 0.9650
-7.4402 4.6136 -1.7017 0.9650
-7.9414 3.6846 -1.7017 0.9650
-8.3271 2.7020 -1.7017 0.9650
-8.5918 1.6802 -1.7017 0.9650
-8.7315 0.6339 -1.7017 0.9650
-8.7444 -0.4216 -1.7017 0.9650
-8.6300 -1.4710 -1.7017 0.9650
-8.3903 -2.4990 -1.7017 0.9650
-8.0285 -3.4906 -1.7017 0.9650
-7.5500 -4.4315 -1.7017 0.9650
-6.9618 -5.3080 -1.7017 0.9650
-6.2724 -6.1073 -1.7017 0.9650
-5.4917 -6.8178 -1.7017 0.9650
-4.6312 -7.4292 -1.7017 0.9650
-3.7034 -7.9326 -1.7017 0.9650
-2.7218 -8.3207 -1.7017 0.9650
-1.7005 -8.5878 -1.7017 0.9650
-0.6546 -8.7300 -1.7017 0.9650
0.4009 -8.7453 -1.7017 0.9650
1.3273 -7.9000 -1.5571 0.9679
2.2684 -7.6828 -1.5571 0.9679
3.1766 -7.3540 -1.5571 0.9679
3.6940 -6.3279 -1.4243 0.9706
4.8419 -6.3818 -1.5571 0.9679
5.6648 -5.8456 -1.5823 0.9674
6.8048 -5.5079 -1.7017 0.9650
7.4182 -4.6489 -1.7017 0.9650
7.9238 -3.7222 -1.7017 0.9650
8.3142 -2.7415 -1.7017 0.9650
8.5837 -1.7209 -1.7017 0.9650
8.7284 -0.6753 -1.7017 0.9650
8.7463 0.3801 -1.7017 0.9650
8.6369 1.4300 -1.7017 0.9650
8.4021 2.4591 -1.7017 0.9650
8.0450 3.4525 -1.7017 0.9650
7.5552 4.3864 -1.6981 0.9650
6.3705 4.8095 -1.5516 0.9680
5.7377 5.5339 -1.5495 0.9680
5.0300 6.1842 -1.5495 0.9680
4.2491 6.7446 -1.5495 0.9680
3.4064 7.2070 -1.5495 0.9680
2.5143 7.5646 -1.5495 0.9680
1.5856 7.8122 -1.5495 0.9680
0.6338 7.9463 -1.5495 0.9680
-0.3272 7.9648 -1.5495 0.9680
-1.2834 7.8675 -1.5495 0.9680
-2.4306 8.3784 -1.6957 0.9651
-3.4333 8.0532 -1.7017 0.9650
-4.3776 7.5814 -1.7017 0.9650
-5.2583 6.9994 -1.7017 0.9650
-6.0625 6.3157 -1.7017 0.9650
-6.7785 5.5401 -1.7017 0.9650
-7.3960 4.6840 -1.7017 0.9650
-7.9060 3.7598 -1.7017 0.9650
-8.3011 2.7810 -1.7017 0.9650
-8.5754 1.7617 -1.7017 0.9650
-8.7251 0.7168 -1.7017 0.9650
-8.7480 -0.3386 -1.7017 0.9650
-8.6436 -1.3890 -1.7017 0.9650
-8.4136 -2.4192 -1.7017 0.9650
-8.0613 -3.4142 -1.7017 0.9650
-7.5918 -4.3596 -1.7017 0.9650
-7.0119 -5.2416 -1.7017 0.9650
-6.3301 -6.0475 -1.7017 0.9650
-5.5562 -6.7654 -1.7017 0.9650
-4.7016 -7.3849 -1.7017 0.9650
-3.7786 -7.8971 -1.7017 0.9650
-2.8007 -8.2944 -1.7017 0.9650
-1.7820 -8.5712 -1.7017 0.9650
-0.7375 -8.7234 -1.7017 0.9650
0.3178 -8.7487 -1.7017 0.9650
1.2522 -7.9122 -1.5571 0.9679
2.1711 -7.6189 -1.5399 0.9682
3.1066 -7.3838 -1.5571 0.9679
3.8425 -6.7283 -1.5061 0.9689
4.7811 -6.4275 -1.5571 0.9679
5.5606 -5.8481 -1.5686 0.9677
6.7522 -5.5723 -1.7017 0.9650
7.3737 -4.7191 -1.7017 0.9650
7.8881 -3.7973 -1.7017 0.9650
8.2878 -2.8203 -1.7017 0.9650
8.5670 -1.8024 -1.7017 0.9650
8.7216 -0.7582 -1.7017 0.9650
8.7495 0.2970 -1.7017 0.9650
8.6501 1.3479 -1.7017 0.9650
8.4250 2.3792 -1.7017 0.9650
8.0774 3.3759 -1.7017 0.9650
7.6017 4.3175 -1.6993 0.9650
6.4073 4.7425 -1.5495 0.9680
5.7900 5.4791 -1.5495 0.9680
5.0885 6.1362 -1.5495 0.9680
4.3129 6.7040 -1.5495 0.9680
3.4747 7.1744 -1.5495 0.9680
2.5860 7.5404 -1.5495 0.9680
1.6597 7.7968 -1.5495 0.9680
0.7092 7.9399 -1.5495 0.9680
-0.2516 7.9675 -1.5495 0.9680
-1.2087 7.8793 -1.5495 0.9680
-2.3491 8.3945 -1.6944 0.9651
-3.3567 8.0854 -1.7017 0.9650
-4.3054 7.6226 -1.7017 0.9650
-5.1916 7.0491 -1.7017 0.9650
-6.0022 6.3730 -1.7017 0.9650
-6.7256 5.6043 -1.7017 0.9650
-7.3512 4.7541 -1.7017 0.9650
-7.8700 3.8347 -1.7017 0.9650
-8.2743 2.8597 -1.7017 0.9650
-8.5583 1.8430 -1.7017 0.9650
-8.7179 0.7996 -1.7017 0.9650
-8.7508 -0.2555 -1.7017 0.9650
-8.6564 -1.3068 -1.7017 0.9650
-8.4362 -2.3392 -1.7017 0.9650
-8.0934 -3.3375 -1.7017 0.9650
-7.6328 -4.2873 -1.7017 0.9650
-7.0613 -5.1748 -1.7017 0.9650
-6.3872 -5.9871 -1.7017 0.9650
-5.6202 -6.7123 -1.7017 0.9650
-4.7715 -7.3399 -1.7017 0.9650
-3.8534 -7.8608 -1.7017 0.9650
-2.8793 -8.2675 -1.7017 0.9650
-1.8634 -8.5539 -1.7017 0.9650
-0.8203 -8.7160 -1.7017 0.9650
0.2347 -8.7514 -1.7017 0.9650
1.1770 -7.9238 -1.5571 0.9679
2.0844 -7.5873 -1.5295 0.9684
3.0364 -7.4130 -1.5571 0.9679
3.7576 -6.7271 -1.4978 0.9691
4.7198 -6.4726 -1.5571 0.9679
5.4645 -5.8575 -1.5571 0.9679
6.6989 -5.6361 -1.7017 0.9650
7.3286 -4.7889 -1.7017 0.9650
7.8517 -3.8721 -1.7017 0.9650
8.2606 -2.8989 -1.7017 0.9650
8.5495 -1.8836 -1.7017 0.9650
8.7140 -0.8410 -1.7017 0.9650
7.4895 0.1831 -1.4562 0.9699
8.6625 1.2657 -1.7017 0.9650
8.4472 2.2991 -1.7017 0.9650
8.1091 3.2990 -1.7017 0.9650
7.6477 4.2480 -1.7005 0.9650
6.4521 4.6814 -1.5495 0.9680
5.8418 5.4239 -1.5495 0.9680
5.1465 6.0876 -1.5495 0.9680
4.3764 6.6627 -1.5495 0.9680
3.5427 7.1410 -1.5495 0.9680
2.6575 7.5155 -1.5495 0.9680
1.7336 7.7807 -1.5495 0.9680
0.7846 7.9328 -1.5495 0.9680
-0.1759 7.9696 -1.5495 0.9680
-1.1338 7.8905 -1.5495 0.9680
-2.2259 8.2556 -1.6620 0.9658
-3.2798 8.1169 -1.7017 0.9650
-4.2329 7.6632 -1.7017 0.9650
-5.1244 7.0980 -1.7017 0.9650
-5.9414 6.4297 -1.7017 0.9650
-6.6721 5.6679 -1.7017 0.9650
-7.3057 4.8236 -1.7017 0.9650
-7.8332 3.9093 -1.7017 0.9650
-8.2468 2.9381 -1.7017 0.9650
-8.5404 1.9242 -1.7017 0.9650
-8.7099 0.8823 -1.7017 0.9650
-8.7528 -0.1724 -1.7017 0.9650
-8.6684 -1.2246 -1.7017 0.9650
-8.4581 -2.2590 -1.7017 0.9650
-8.1247 -3.2605 -1.7017 0.9650
-7.6732 -4.2147 -1.7017 0.9650
-7.1102 -5.1075 -1.7017 0.9650
-6.4438 -5.9262 -1.7017 0.9650
-5.6837 -6.6586 -1.7017 0.9650
-4.8410 -7.2943 -1.7017 0.9650
-3.9279 -7.8239 -1.7017 0.9650
-2.9577 -8.2398 -1.7017 0.9650
-1.9445 -8.5358 -1.7017 0.9650
-0.9030 -8.7078 -1.7017 0.9650
0.1516 -8.7532 -1.7017 0.9650
1.2040 -8.6713 -1.7017 0.9650
2.0071 -7.5871 -1.5255 0.9685
2.9658 -7.4415 -1.5571 0.9679
3.6736 -6.7259 -1.4897 0.9693
4.6581 -6.5172 -1.5571 0.9679
5.4086 -5.9092 -1.5571 0.9679
6.6451 -5.6995 -1.7017 0.9650
7.2828 -4.8583 -1.7017 0.9650
7.8146 -3.9464 -1.7017 0.9650
8.2327 -2.9772 -1.7017 0.9650
8.5312 -1.9647 -1.7017 0.9650
8.7057 -0.9237 -1.7017 0.9650
8.7535 0.1308 -1.7017 0.9650
8.6742 1.1834 -1.7017 0.9650
8.4687 2.2188 -1.7017 0.9650
8.1401 3.2219 -1.7017 0.9650
7.6930 4.1781 -1.7017 0.9650
6.5399 4.6510 -1.5599 0.9678
5.8930 5.3682 -1.5495 0.9680
5.2041 6.0384 -1.5495 0.9680
4.4395 6.6209 -1.5495 0.9680
3.6104 7.1071 -1.5495 0.9680
2.7287 7.4899 -1.5495 0.9680
1.8074 7.7639 -1.5495 0.9680
0.8599 7.9250 -1.5495 0.9680
-0.1002 7.9709 -1.5495 0.9680
-1.0588 7.9009 -1.5495 0.9680
-2.0973 8.0832 -1.6232 0.9665
-3.2026 8.1477 -1.7017 0.9650
-4.1599 7.7030 -1.7017 0.9650
-5.0568 7.1464 -1.7017 0.9650
-5.8801 6.4858 -1.7017 0.9650
-6.6180 5.7310 -1.7017 0.9650
-7.2596 4.8928 -1.7017 0.9650
-7.7957 3.9835 -1.7017 0.9650
-8.2185 3.0163 -1.7017 0.9650
-8.5218 2.0052 -1.7017 0.9650
-8.7012 0.9650 -1.7017 0.9650
-8.7541 -0.0892 -1.7017 0.9650
-8.6797 -1.1422 -1.7017 0.9650
-8.4791 -2.1785 -1.7017 0.9650
-8.1553 -3.1832 -1.7017 0.9650
-7.7129 -4.1416 -1.7017 0.9650
-7.1584 -5.0398 -1.7017 0.9650
-6.4998 -5.8647 -1.7017 0.9650
-5.7467 -6.6043 -1.7017 0.9650
-4.9100 -7.2480 -1.7017 0.9650
-4.0020 -7.7862 -1.7017 0.9650
-3.0358 -8.2113 -1.7017 0.9650
-2.0255 -8.5170 -1.7017 0.9650
-0.9857 -8.6989 -1.7017 0.9650
0.0685 -8.7542 -1.7017 0.9650
1.1216 -8.6824 -1.7017 0.9650
1.9301 -7.5869 -1.5217 0.9686
2.8950 -7.4693 -1.5571 0.9679
3.5905 -6.7247 -1.4818 0.9694
4.5960 -6.5611 -1.5571 0.9679
5.3523 -5.9603 -1.5571 0.9679
6.5907 -5.7623 -1.7017 0.9650
7.2363 -4.9272 -1.7017 0.9650
7.7767 -4.0205 -1.7017 0.9650
8.2041 -3.0553 -1.7017 0.9650
8.5122 -2.0457 -1.7017 0.9650
8.6965 -1.0063 -1.7017 0.9650
8.7544 0.0477 -1.7017 0.9650
8.6850 1.1010 -1.7017 0.9650
8.4894 2.1382 -1.7017 0.9650
8.1703 3.1444 -1.7017 0.9650
7.7325 4.1049 -1.7017 0.9650
6.6680 4.6473 -1.5799 0.9674
5.9437 5.3120 -1.5495 0.9680
5.2612 5.9887 -1.5495 0.9680
4.5022 6.5784 -1.5495 0.9680
3.6777 7.0725 -1.5495 0.9680
2.0357 5.4267 -1.1266 0.9767
1.8811 7.7464 -1.5495 0.9680
0.9351 7.9165 -1.5495 0.9680
-0.0245 7.9715 -1.5495 0.9680
-0.9837 7.9106 -1.5495 0.9680
-1.9745 7.9187 -1.5864 0.9673
-3.1250 8.1778 -1.7017 0.9650
-4.0866 7.7422 -1.7017 0.9650
-4.9887 7.1941 -1.7017 0.9650
-5.8182 6.5414 -1.7017 0.9650
-6.5632 5.7936 -1.7017 0.9650
-7.2128 4.9615 -1.7017 0.9650
-7.7575 4.0573 -1.7017 0.9650
-8.1895 3.0942 -1.7017 0.9650
-8.5024 2.0860 -1.7017 0.9650
-8.6916 1.0476 -1.7017 0.9650
-8.7545 -0.0061 -1.7017 0.9650
-8.6901 -1.0597 -1.7017 0.9650
-8.4994 -2.0979 -1.7017 0.9650
-8.1852 -3.1056 -1.7017 0.9650
-7.7519 -4.0682 -1.7017 0.9650
-7.2059 -4.9716 -1.7017 0.9650
-6.5552 -5.8027 -1.7017 0.9650
-5.8091 -6.5495 -1.7017 0.9650
-4.9786 -7.2010 -1.7017 0.9650
-4.0758 -7.7479 -1.7017 0.9650
-3.1136 -8.1821 -1.7017 0.9650
-2.1063 -8.4974 -1.7017 0.9650
-1.0682 -8.6891 -1.7017 0.9650
-0.0147 -8.7545 -1.7017 0.9650
1.0391 -8.6926 -1.7017 0.9650
1.8535 -7.5867 -1.5181 0.9687
2.8240 -7.4965 -1.5571 0.9679
3.5082 -6.7236 -1.4741 0.9696
4.5335 -6.6045 -1.5571 0.9679
5.2954 -6.0108 -1.5571 0.9679
6.5344 -5.8236 -1.7014 0.9650
7.1892 -4.9957 -1.7017 0.9650
7.7382 -4.0941 -1.7017 0.9650
8.1747 -3.1331 -1.7017 0.9650
8.4923 -2.1264 -1.7017 0.9650
8.6865 -1.0889 -1.7017 0.9650
8.7544 -0.0355 -1.7017 0.9650
8.6951 1.0184 -1.7017 0.9650
8.5093 2.0575 -1.7017 0.9650
8.1998 3.0667 -1.7017 0.9650
7.7711 4.0313 -1.7017 0.9650
6.7992 4.6435 -1.6004 0.9670
5.9939 5.2553 -1.5495 0.9680
5.3178 5.9385 -1.5495 0.9680
4.5644 6.5354 -1.5495 0.9680
3.7447 7.0372 -1.5495 0.9680
2.0391 5.2829 -1.1007 0.9772
1.9546 7.7282 -1.5495 0.9680
1.0102 7.9072 -1.5495 0.9680
0.0512 7.9714 -1.5495 0.9680
-0.9085 7.9196 -1.5495 0.9680
-1.8592 7.7697 -1.5529 0.9680
-3.0472 8.2071 -1.7017 0.9650
-4.0128 7.7807 -1.7017 0.9650
-4.9201 7.2411 -1.7017 0.9650
-5.7559 6.5963 -1.7017 0.9650
-6.5079 5.8556 -1.7017 0.9650
-7.1654 5.0298 -1.7017 0.9650
-7.7187 4.1308 -1.7017 0.9650
-8.1597 3.1718 -1.7017 0.9650
-8.4822 2.1667 -1.7017 0.9650
-8.6813 1.1301 -1.7017 0.9650
-8.7542 0.0770 -1.7017 0.9650
-8.6998 -0.9771 -1.7017 0.9650
-8.5190 -2.0171 -1.7017 0.9650
-8.2143 -3.0277 -1.7017 0.9650
-7.7902 -3.9944 -1.7017 0.9650
-7.2528 -4.9029 -1.7017 0.9650
-6.6100 -5.7402 -1.7017 0.9650
-5.8711 -6.4940 -1.7017 0.9650
-5.0468 -7.1534 -1.7017 0.9650
-4.1491 -7.7088 -1.7017 0.9650
-3.1912 -8.1522 -1.7017 0.9650
-2.1868 -8.4770 -1.7017 0.9650
-1.1507 -8.6786 -1.7017 0.9650
-0.0978 -8.7540 -1.7017 0.9650
0.9565 -8.7021 -1.7017 0.9650
1.7773 -7.5865 -1.5146 0.9687
2.7527 -7.5229 -1.5571 0.9679
3.4268 -6.7225 -1.4667 0.9697
4.4706 -6.6472 -1.5571 0.9679
5.2381 -6.0608 -1.5571 0.9679
6.4143 -5.8267 -1.6844 0.9653
7.1414 -5.0638 -1.7017 0.9650
7.6990 -4.1675 -1.7017 0.9650
8.1446 -3.2105 -1.7017 0.9650
8.4718 -2.2070 -1.7017 0.9650
8.6758 -1.1713 -1.7017 0.9650
8.7537 -0.1186 -1.7017 0.9650
8.7044 0.9358 -1.7017 0.9650
8.5284 1.9766 -1.7017 0.9650
8.2286 2.9887 -1.7017 0.9650
7.8090 3.9573 -1.7017 0.9650
6.9339 4.6396 -1.6217 0.9666
6.0435 5.1982 -1.5495 0.9680
5.3740 5.8877 -1.5495 0.9680
4.6263 6.4917 -1.5495 0.9680
3.8113 7.0013 -1.5495 0.9680
2.0770 5.2326 -1.0943 0.9773
2.0279 7.7093 -1.5495 0.9680
1.0853 7.8973 -1.5495 0.9680
0.1269 7.9705 -1.5495 0.9680
-0.8333 7.9278 -1.5495 0.9680
-1.7814 7.7699 -1.5495 0.9680
-2.9692 8.2356 -1.7017 0.9650
-3.9388 7.8184 -1.7017 0.9650
-4.8511 7.2875 -1.7017 0.9650
-5.6930 6.6507 -1.7017 0.9650
-6.4520 5.9172 -1.7017 0.9650
-7.1173 5.0976 -1.7017 0.9650
-7.6791 4.2040 -1.7017 0.9650
-8.1292 3.2492 -1.7017 0.9650
-8.4612 2.2472 -1.7017 0.9650
-8.6701 1.2125 -1.7017 0.9650
-8.7531 0.1602 -1.7017 0.9650
-8.7087 -0.8945 -1.7017 0.9650
-8.5377 -1.9361 -1.7017 0.9650
-8.2427 -2.9496 -1.7017 0.9650
-7.8277 -3.9202 -1.7017 0.9650
-7.2990 -4.8338 -1.7017 0.9650
-6.6642 -5.6772 -1.7017 0.9650
-5.9325 -6.4380 -1.7017 0.9650
-5.1145 -7.1052 -1.7017 0.9650
-4.2222 -7.6691 -1.7017 0.9650
-3.2685 -8.1215 -1.7017 0.9650
-2.2672 -8.4558 -1.7017 0.9650
-1.2331 -8.6672 -1.7017 0.9650
-0.1809 -8.7526 -1.7017 0.9650
0.8738 -8.7108 -1.7017 0.9650
1.7014 -7.5862 -1.5112 0.9688
2.6811 -7.5487 -1.5571 0.9679
3.3462 -6.7213 -1.4595 0.9699
4.4073 -6.6894 -1.5571 0.9679
5.1803 -6.1103 -1.5571 0.9679
6.2965 -5.8298 -1.6680 0.9656
7.0930 -5.1313 -1.7017 0.9650
7.6590 -4.2404 -1.7017 0.9650
8.1137 -3.2877 -1.7017 0.9650
8.4504 -2.2873 -1.7017 0.9650
8.6643 -1.2536 -1.7017 0.9650
8.7522 -0.2017 -1.7017 0.9650
8.7128 0.8531 -1.7017 0.9650
8.5468 1.8956 -1.7017 0.9650
8.2566 2.9104 -1.7017 0.9650
7.8463 3.8830 -1.7017 0.9650
7.0723 4.6355 -1.6437 0.9661
6.0926 5.1405 -1.5495 0.9680
5.4297 5.8364 -1.5495 0.9680
4.6877 6.4475 -1.5495 0.9680
3.8776 6.9648 -1.5495 0.9680
2.1323 5.2266 -1.0972 0.9773
2.1010 7.6897 -1.5495 0.9680
1.1602 7.8866 -1.5495 0.9680
0.2026 7.9689 -1.5495 0.9680
-0.7580 7.9354 -1.5495 0.9680
-1.7075 7.7865 -1.5495 0.9680
-2.8908 8.2635 -1.7017 0.9650
-3.8644 7.8555 -1.7017 0.9650
-4.7817 7.3333 -1.7017 0.9650
-5.6296 6.7045 -1.7017 0.9650
-6.3955 5.9782 -1.7017 0.9650
-7.0686 5.1650 -1.7017 0.9650
-7.6388 4.2767 -1.7017 0.9650
-8.0980 3.3262 -1.7017 0.9650
-8.4395 2.3274 -1.7017 0.9650
-8.6582 1.2947 -1.7017 0.9650
-8.7511 0.2433 -1.7017 0.9650
-8.7168 -0.8118 -1.7017 0.9650
-8.5557 -1.8550 -1.7017 0.9650
-8.2703 -2.8712 -1.7017 0.9650
-7.8646 -3.8457 -1.7017 0.9650
-7.3446 -4.7643 -1.7017 0.9650
-6.7178 -5.6136 -1.7017 0.9650
-5.9933 -6.3813 -1.7017 0.9650
-5.1817 -7.0563 -1.7017 0.9650
-4.2948 -7.6286 -1.7017 0.9650
-3.3454 -8.0901 -1.7017 0.9650
-2.3475 -8.4339 -1.7017 0.9650
-1.3153 -8.6551 -1.7017 0.9650
-0.2641 -8.7505 -1.7017 0.9650
0.7911 -8.7187 -1.7017 0.9650
1.6327 -7.6179 -1.5144 0.9688
2.6093 -7.5739 -1.5571 0.9679
3.2679 -6.7234 -1.4531 0.9700
4.3436 -6.7309 -1.5571 0.9679
5.1221 -6.1592 -1.5571 0.9679
6.1809 -5.8327 -1.6519 0.9660
7.0440 -5.1985 -1.7017 0.9650
7.6184 -4.3129 -1.7017 0.9650
8.0821 -3.3646 -1.7017 0.9650
8.4283 -2.3675 -1.7017 0.9650
8.6520 -1.3359 -1.7017 0.9650
8.7499 -0.2848 -1.7017 0.9650
8.7206 0.7703 -1.7017 0.9650
8.5645 1.8143 -1.7017 0.9650
8.2838 2.8319 -1.7017 0.9650
7.8828 3.8083 -1.7017 0.9650
7.2143 4.6313 -1.6664 0.9657
6.1412 5.0824 -1.5495 0.9680
5.4848 5.7846 -1.5495 0.9680
4.7487 6.4027 -1.5495 0.9680
3.9436 6.9277 -1.5495 0.9680
2.1901 5.2259 -1.1014 0.9772
2.1739 7.6694 -1.5495 0.9680
1.2351 7.8753 -1.5495 0.9680
0.2783 7.9667 -1.5495 0.9680
-0.6826 7.9422 -1.5495 0.9680
-1.6335 7.8023 -1.5495 0.9680
-2.8122 8.2905 -1.7017 0.9650
-3.7896 7.8918 -1.7017 0.9650
-4.7118 7.3783 -1.7017 0.9650
-5.5656 6.7576 -1.7017 0.9650
-6.3385 6.0386 -1.7017 0.9650
-7.0192 5.2319 -1.7017 0.9650
-7.5979 4.3490 -1.7017 0.9650
-8.0661 3.4030 -1.7017 0.9650
-8.4170 2.4074 -1.7017 0.9650
-8.6456 1.3769 -1.7017 0.9650
-8.7484 0.3264 -1.7017 0.9650
-8.7241 -0.7289 -1.7017 0.9650
-8.5730 -1.7736 -1.7017 0.9650
-8.2972 -2.7925 -1.7017 0.9650
-7.9008 -3.7708 -1.7017 0.9650
-7.3895 -4.6943 -1.7017 0.9650
-6.7708 -5.5496 -1.7017 0.9650
-6.0537 -6.3241 -1.7017 0.9650
-5.2485 -7.0068 -1.7017 0.9650
-4.3670 -7.5875 -1.7017 0.9650
-3.4221 -8.0580 -1.7017 0.9650
-2.4274 -8.4113 -1.7017 0.9650
-1.3974 -8.6423 -1.7017 0.9650
-0.3471 -8.7476 -1.7017 0.9650
0.7082 -8.7258 -1.7017 0.9650
1.6043 -7.8484 -1.5571 0.9679
2.5372 -7.5983 -1.5571 0.9679
3.2657 -6.8843 -1.4811 0.9694
4.2555 -6.7340 -1.5484 0.9681
5.0633 -6.2076 -1.5571 0.9679
6.0674 -5.8356 -1.6364 0.9663
6.9943 -5.2651 -1.7017 0.9650
7.5771 -4.3851 -1.7017 0.9650
8.0498 -3.4412 -1.7017 0.9650
8.4055 -2.4474 -1.7017 0.9650
8.6389 -1.4179 -1.7017 0.9650
8.7468 -0.3679 -1.7017 0.9650
8.7275 0.6875 -1.7017 0.9650
8.5813 1.7329 -1.7017 0.9650
8.3103 2.7531 -1.7017 0.9650
7.9186 3.7333 -1.7017 0.9650
7.3604 4.6269 -1.6899 0.9652
6.1892 5.0239 -1.5495 0.9680
5.5395 5.7323 -1.5495 0.9680
4.8093 6.3573 -1.5495 0.9680
4.0092 6.8899 -1.5495 0.9680
2.2484 5.2252 -1.1057 0.9771
2.2467 7.6484 -1.5495 0.9680
1.3098 7.8632 -1.5495 0.9680
0.3539 7.9637 -1.5495 0.9680
-0.6071 7.9484 -1.5495 0.9680
-1.5594 7.8175 -1.5495 0.9680
-2.7318 8.3122 -1.7008 0.9650
-3.7145 7.9274 -1.7017 0.9650
-4.6416 7.4227 -1.7017 0.9650
-5.5012 6.8102 -1.7017 0.9650
-6.2809 6.0985 -1.7017 0.9650
-6.9692 5.2983 -1.7017 0.9650
-7.5562 4.4210 -1.7017 0.9650
-8.0334 3.4794 -1.7017 0.9650
-8.3938 2.4873 -1.7017 0.9650
-8.6321 1.4590 -1.7017 0.9650
-8.7449 0.4094 -1.7017 0.9650
-8.7306 -0.6460 -1.7017 0.9650
-8.5894 -1.6921 -1.7017 0.9650
-8.3233 -2.7136 -1.7017 0.9650
-7.9362 -3.6957 -1.7017 0.9650
-7.4337 -4.6240 -1.7017 0.9650
-6.8232 -5.4850 -1.7017 0.9650
-6.1134 -6.2664 -1.7017 0.9650
-5.3148 -6.9566 -1.7017 0.9650
-4.4389 -7.5457 -1.7017 0.9650
-3.4985 -8.0251 -1.7017 0.9650
-2.5072 -8.3878 -1.7017 0.9650
-1.4794 -8.6286 -1.7017 0.9650
-0.4302 -8.7439 -1.7017 0.9650
0.6253 -8.7322 -1.7017 0.9650
1.5297 -7.8633 -1.5571 0.9679
2.4650 -7.6220 -1.5571 0.9679
3.2633 -7.0516 -1.5104 0.9688
4.1658 -6.7328 -1.5390 0.9683
5.0042 -6.2554 -1.5571 0.9679
5.9561 -5.8384 -1.6212 0.9666
6.9440 -5.3313 -1.7017 0.9650
7.5351 -4.4568 -1.7017 0.9650
8.0168 -3.5175 -1.7017 0.9650
8.3819 -2.5271 -1.7017 0.9650
8.6251 -1.4999 -1.7017 0.9650
8.7429 -0.4509 -1.7017 0.9650
8.7336 0.6046 -1.7017 0.9650
8.5974 1.6513 -1.7017 0.9650
8.3361 2.6741 -1.7017 0.9650
7.9537 3.6579 -1.7017 0.9650
7.4264 4.5706 -1.6950 0.9651
6.2366 4.9649 -1.5495 0.9680
5.5937 5.6794 -1.5495 0.9680
4.8694 6.3114 -1.5495 0.9680
4.0745 6.8515 -1.5495 0.9680
2.3071 5.2244 -1.1101 0.9770
2.3192 7.6267 -1.5495 0.9680
1.3844 7.8504 -1.5495 0.9680
0.4295 7.9599 -1.5495 0.9680
-0.5317 7.9538 -1.5495 0.9680
-1.4850 7.8320 -1.5495 0.9680
-2.6507 8.3311 -1.6994 0.9650
-3.6390 7.9624 -1.7017 0.9650
-4.5709 7.4665 -1.7017 0.9650
-5.4363 6.8621 -1.7017 0.9650
-6.2227 6.1579 -1.7017 0.9650
-6.9185 5.3643 -1.7017 0.9650
-7.5139 4.4925 -1.7017 0.9650
-8.0000 3.5555 -1.7017 0.9650
-8.3698 2.5669 -1.7017 0.9650
-8.6178 1.5409 -1.7017 0.9650
-8.7406 0.4924 -1.7017 0.9650
-8.7364 -0.5631 -1.7017 0.9650
-8.6051 -1.6105 -1.7017 0.9650
-8.3487 -2.6345 -1.7017 0.9650
-7.9710 -3.6201 -1.7017 0.9650
-7.4773 -4.5532 -1.7017 0.9650
-6.8750 -5.4200 -1.7017 0.9650
-6.1727 -6.2080 -1.7017 0.9650
-5.3806 -6.9058 -1.7017 0.9650
-4.5104 -7.5032 -1.7017 0.9650
-3.5745 -7.9915 -1.7017 0.9650
-2.5867 -8.3636 -1.7017 0.9650
-1.5613 -8.6142 -1.7017 0.9650
-0.5132 -8.7395 -1.7017 0.9650
0.5424 -8.7377 -1.7017 0.9650
1.4549 -7.8775 -1.5571 0.9679
2.3925 -7.6451 -1.5571 0.9679
3.2609 -7.2256 -1.5409 0.9682
3.7742 -6.2314 -1.4161 0.9707
4.9445 -6.3026 -1.5571 0.9679
5.8467 -5.8411 -1.6065 0.9669
6.8930 -5.3970 -1.7017 0.9650
7.4925 -4.5281 -1.7017 0.9650
7.9830 -3.5935 -1.7017 0.9650
8.3575 -2.6066 -1.7017 0.9650
8.6104 -1.5817 -1.7017 0.9650
8.7382 -0.5339 -1.7017 0.9650
8.7390 0.5216 -1.7017 0.9650
8.6127 1.5697 -1.7017 0.9650
8.3611 2.5948 -1.7017 0.9650
7.9881 3.5822 -1.7017 0.9650
7.4745 4.5029 -1.6962 0.9651
6.2834 4.9054 -1.5495 0.9680
5.6474 5.6260 -1.5495 0.9680
4.9292 6.2648 -1.5495 0.9680
4.1394 6.8125 -1.5495 0.9680
2.3663 5.2237 -1.1147 0.9769
