ply
format ascii 1.0
element vertex 1535
property float32 x
property float32 y
property float32 z
property float32 I
end_header
32.4016 2.1250 -1.7017 0.8780
29.0560 5.4734 -1.5495 0.8883
22.2468 7.0501 -1.2230 0.9108
18.5643 8.4600 -1.0692 0.9215
17.0505 10.4139 -1.0471 0.9231
16.0308 12.6745 -1.0710 0.9214
15.7732 15.9097 -1.1741 0.9142
15.8023 20.3448 -1.3501 0.9020
7.9961 13.3490 -0.8155 0.9396
6.9246 15.5486 -0.8920 0.9341
9.5425 31.0374 -1.7017 0.8780
5.7360 31.9605 -1.7017 0.8780
1.8459 32.4187 -1.7017 0.8780
-2.0711 32.4051 -1.7017 0.8780
-5.9579 31.9199 -1.7017 0.8780
-9.7581 30.9703 -1.7017 0.8780
-12.2163 26.9253 -1.5495 0.8883
-15.3695 25.2584 -1.5495 0.8883
-18.0537 22.9127 -1.5288 0.8897
-18.0625 17.9672 -1.3352 0.9030
-18.0733 14.0862 -1.2009 0.9123
-18.0822 10.8721 -1.1058 0.9190
-24.0730 10.7689 -1.3821 0.8998
-28.2470 8.7360 -1.5495 0.8883
-29.0934 5.2712 -1.5495 0.8883
-32.4156 1.8996 -1.7017 0.8780
-32.4085 -2.0173 -1.7017 0.8780
-31.9298 -5.9049 -1.7017 0.8780
-30.9864 -9.7066 -1.7017 0.8780
-29.5922 -13.3670 -1.7017 0.8780
-25.2839 -15.3275 -1.5495 0.8883
-23.2544 -18.2604 -1.5495 0.8883
-20.8859 -20.9276 -1.5495 0.8883
-18.2146 -23.2903 -1.5495 0.8883
-15.2777 -25.3141 -1.5495 0.8883
-12.1184 -26.9695 -1.5495 0.8883
-9.6456 -31.0055 -1.7017 0.8780
-5.8420 -31.9413 -1.7017 0.8780
-1.9535 -32.4124 -1.7017 0.8780
0.3946 -6.5141 -0.3420 0.9742
1.2005 -6.5520 -0.3491 0.9737
9.6552 -31.0025 -1.7017 0.8780
7.2287 -16.0742 -0.9237 0.9318
15.2855 -25.3094 -1.5495 0.8883
17.6103 -22.5033 -1.4975 0.8919
20.8928 -20.9212 -1.5495 0.8883
21.7418 -17.0618 -1.4484 0.8952
25.2886 -15.3197 -1.5495 0.8883
22.8090 -10.2946 -1.3115 0.9046
30.9894 -9.6971 -1.7017 0.8780
31.9316 -5.8951 -1.7017 0.8780
32.4091 -2.0073 -1.7017 0.8780
32.4150 1.9097 -1.7017 0.8780
29.0917 5.2802 -1.5495 0.8883
22.4812 6.9604 -1.2334 0.9100
18.7431 8.3916 -1.0762 0.9210
17.1055 10.2921 -1.0462 0.9232
16.0883 12.5471 -1.0692 0.9215
15.7718 15.6982 -1.1662 0.9147
15.8005 20.0656 -1.3385 0.9028
8.1218 13.3568 -0.8193 0.9393
6.9362 15.3003 -0.8804 0.9349
9.7486 30.9733 -1.7017 0.8780
5.9482 31.9217 -1.7017 0.8780
2.0612 32.4057 -1.7017 0.8780
-1.8558 32.4181 -1.7017 0.8780
-5.7458 31.9588 -1.7017 0.8780
-9.5521 31.0344 -1.7017 0.8780
-12.0372 27.0059 -1.5495 0.8883
-15.2014 25.3600 -1.5495 0.8883
-18.0529 23.2274 -1.5417 0.8888
-18.0618 18.2068 -1.3440 0.9024
-18.0727 14.2798 -1.2071 0.9119
-18.0818 11.0362 -1.1102 0.9186
-23.6473 10.7677 -1.3617 0.9012
-28.1883 8.9235 -1.5495 0.8883
-29.0577 5.4645 -1.5495 0.8883
-32.4022 2.1150 -1.7017 0.8780
-32.4211 -1.8019 -1.7017 0.8780
-31.9683 -5.6927 -1.7017 0.8780
-31.0502 -9.5005 -1.7017 0.8780
-29.6804 -13.1702 -1.7017 0.8780
-25.3852 -15.1592 -1.5495 0.8883
-23.3752 -18.1055 -1.5495 0.8883
-21.0250 -20.7884 -1.5495 0.8883
-18.3689 -23.1688 -1.5495 0.8883
-15.4455 -25.2120 -1.5495 0.8883
-12.2973 -26.8884 -1.5495 0.8883
-9.8515 -30.9407 -1.7017 0.8780
-6.0542 -31.9018 -1.7017 0.8780
-2.1689 -32.3987 -1.7017 0.8780
0.3511 -6.5134 -0.3418 0.9742
1.1544 -6.5460 -0.3484 0.9737
9.4489 -31.0660 -1.7017 0.8780
7.1366 -16.1555 -0.9256 0.9317
15.1170 -25.4103 -1.5495 0.8883
17.5731 -22.7659 -1.5072 0.8912
20.7534 -21.0595 -1.5495 0.8883
21.4468 -17.0617 -1.4363 0.8960
25.1863 -15.4874 -1.5495 0.8883
22.7928 -10.4701 -1.3145 0.9044
30.9243 -9.9027 -1.7017 0.8780
31.8917 -6.1071 -1.7017 0.8780
32.3950 -2.2226 -1.7017 0.8780
32.4270 1.6942 -1.7017 0.8780
29.1262 5.0867 -1.5495 0.8883
23.0214 6.9603 -1.2604 0.9082
18.9244 8.3222 -1.0834 0.9205
17.1604 10.1704 -1.0454 0.9232
16.1456 12.4201 -1.0675 0.9216
15.7705 15.4897 -1.1585 0.9153
15.7987 19.7914 -1.3272 0.9035
8.2498 13.3664 -0.8232 0.9390
6.9421 15.0466 -0.8684 0.9358
9.9541 30.9078 -1.7017 0.8780
6.1601 31.8815 -1.7017 0.8780
2.2764 32.3913 -1.7017 0.8780
-1.6404 32.4297 -1.7017 0.8780
-5.5334 31.9962 -1.7017 0.8780
-9.3456 31.0972 -1.7017 0.8780
-11.8574 27.0853 -1.5495 0.8883
-15.0325 25.4605 -1.5495 0.8883
-17.9888 23.4652 -1.5495 0.8883
-18.0612 18.4498 -1.3531 0.9018
-18.0722 14.4755 -1.2135 0.9114
-18.0813 11.2014 -1.1147 0.9183
-23.0928 10.7010 -1.3339 0.9031
-28.1284 9.1106 -1.5495 0.8883
-29.0207 5.6574 -1.5495 0.8883
-32.3875 2.3302 -1.7017 0.8780
-32.4324 -1.5865 -1.7017 0.8780
-32.0054 -5.4802 -1.7017 0.8780
-31.1127 -9.2941 -1.7017 0.8780
-29.7672 -12.9727 -1.7017 0.8780
-25.4853 -14.9902 -1.5495 0.8883
-23.4950 -17.9497 -1.5495 0.8883
-21.1020 -20.5889 -1.5451 0.8886
-14.1474 -17.6026 -1.1835 0.9135
-15.6128 -25.1088 -1.5495 0.8883
-12.4758 -26.8060 -1.5495 0.8883
-10.0568 -30.8746 -1.7017 0.8780
-6.2660 -31.8609 -1.7017 0.8780
-2.3840 -32.3835 -1.7017 0.8780
0.3077 -6.5127 -0.3417 0.9742
1.1086 -6.5400 -0.3476 0.9738
9.2423 -31.1281 -1.7017 0.8780
7.0780 -16.3152 -0.9320 0.9312
14.9479 -25.5102 -1.5495 0.8883
17.5186 -23.0096 -1.5156 0.8906
20.6131 -21.1969 -1.5495 0.8883
21.2976 -17.1755 -1.4339 0.8962
25.0828 -15.6545 -1.5495 0.8883
22.7765 -10.6465 -1.3176 0.9042
30.8578 -10.1081 -1.7017 0.8780
31.8504 -6.3190 -1.7017 0.8780
32.3796 -2.4378 -1.7017 0.8780
32.4375 1.4787 -1.7017 0.8780
29.1593 4.8931 -1.5495 0.8883
23.5743 6.9569 -1.2882 0.9062
19.1080 8.2519 -1.0908 0.9200
17.2151 10.0489 -1.0447 0.9233
16.2027 12.2936 -1.0659 0.9218
15.7691 15.2838 -1.1509 0.9158
15.7969 19.5218 -1.3161 0.9043
8.3789 13.3759 -0.8272 0.9387
6.9459 14.7956 -0.8566 0.9366
10.1594 30.8410 -1.7017 0.8780
6.3719 31.8399 -1.7017 0.8780
2.4917 32.3754 -1.7017 0.8780
-1.4248 32.4399 -1.7017 0.8780
-5.3205 32.0323 -1.7017 0.8780
-9.1386 31.1586 -1.7017 0.8780
-11.8465 27.5574 -1.5720 0.8868
-14.8630 25.5597 -1.5495 0.8883
-17.8325 23.5841 -1.5495 0.8883
-18.0605 18.6960 -1.3623 0.9011
-18.0717 14.6732 -1.2200 0.9110
-18.0808 11.3680 -1.1193 0.9180
-22.8331 10.7654 -1.3230 0.9038
-28.0672 9.2972 -1.5495 0.8883
-28.9825 5.8500 -1.5495 0.8883
-32.3713 2.5454 -1.7017 0.8780
-32.4422 -1.3709 -1.7017 0.8780
-32.0411 -5.2673 -1.7017 0.8780
-31.1737 -9.0871 -1.7017 0.8780
-29.8528 -12.7746 -1.7017 0.8780
-25.5844 -14.8205 -1.5495 0.8883
-23.6137 -17.7933 -1.5495 0.8883
-21.1012 -20.3163 -1.5351 0.8893
-14.2515 -17.4928 -1.1825 0.9136
-15.7792 -25.0045 -1.5495 0.8883
-12.6536 -26.7226 -1.5495 0.8883
-10.2617 -30.8071 -1.7017 0.8780
-6.4775 -31.8185 -1.7017 0.8780
-2.5991 -32.3670 -1.7017 0.8780
0.2644 -6.5119 -0.3416 0.9742
1.0630 -6.5341 -0.3469 0.9738
9.0352 -31.1888 -1.7017 0.8780
7.0328 -16.5107 -0.9405 0.9306
14.7779 -25.6090 -1.5495 0.8883
17.5177 -23.3286 -1.5289 0.8897
20.4717 -21.3335 -1.5495 0.8883
21.2975 -17.4102 -1.4416 0.8957
24.9782 -15.8209 -1.5495 0.8883
22.7903 -10.8380 -1.3226 0.9039
30.7899 -10.3130 -1.7017 0.8780
31.8077 -6.5304 -1.7017 0.8780
32.3626 -2.6530 -1.7017 0.8780
32.4466 1.2632 -1.7017 0.8780
29.1912 4.6992 -1.5495 0.8883
24.1522 6.9534 -1.3172 0.9042
19.2942 8.1806 -1.0983 0.9195
17.2699 9.9275 -1.0440 0.9233
16.2596 12.1673 -1.0643 0.9219
15.7678 15.0805 -1.1435 0.9163
15.7952 19.2565 -1.3053 0.9051
8.5120 13.3895 -0.8315 0.9384
6.9474 14.5467 -0.8448 0.9375
10.3641 30.7728 -1.7017 0.8780
6.5833 31.7968 -1.7017 0.8780
2.7068 32.3582 -1.7017 0.8780
-1.2093 32.4487 -1.7017 0.8780
-5.1075 32.0670 -1.7017 0.8780
-8.9317 31.2186 -1.7017 0.8780
-11.8421 28.0596 -1.5961 0.8852
-14.6929 25.6579 -1.5495 0.8883
-17.6753 23.7022 -1.5495 0.8883
-18.0598 18.9455 -1.3717 0.9005
-18.0711 14.8731 -1.2266 0.9105
-18.0804 11.5362 -1.1240 0.9177
-22.4428 10.7644 -1.3045 0.9051
-28.0048 9.4837 -1.5495 0.8883
-28.9430 6.0425 -1.5495 0.8883
-32.3536 2.7606 -1.7017 0.8780
-21.2581 -0.7569 -1.1148 0.9183
-32.0754 -5.0542 -1.7017 0.8780
-31.2334 -8.8798 -1.7017 0.8780
-29.9371 -12.5759 -1.7017 0.8780
-25.6823 -14.6502 -1.5495 0.8883
-23.7315 -17.6359 -1.5495 0.8883
-21.1047 -20.0512 -1.5256 0.8899
-18.8271 -22.7980 -1.5495 0.8883
-15.9450 -24.8991 -1.5495 0.8883
-12.8309 -26.6379 -1.5495 0.8883
-10.4663 -30.7381 -1.7017 0.8780
-6.6889 -31.7748 -1.7017 0.8780
-2.8143 -32.3490 -1.7017 0.8780
0.2210 -6.5112 -0.3414 0.9742
1.0178 -6.5296 -0.3463 0.9739
8.8279 -31.2481 -1.7017 0.8780
6.9981 -16.7370 -0.9507 0.9299
14.6075 -25.7066 -1.5495 0.8883
17.5168 -23.6532 -1.5425 0.8888
20.3296 -21.4690 -1.5495 0.8883
21.2975 -17.6476 -1.4495 0.8951
24.8726 -15.9863 -1.5495 0.8883
22.8090 -11.0334 -1.3279 0.9035
30.7208 -10.5171 -1.7017 0.8780
31.7636 -6.7417 -1.7017 0.8780
32.3443 -2.8678 -1.7017 0.8780
32.4543 1.0475 -1.7017 0.8780
29.2218 4.5053 -1.5495 0.8883
24.7570 6.9497 -1.3476 0.9021
19.4828 8.1084 -1.1059 0.9189
17.3245 9.8064 -1.0433 0.9234
16.3163 12.0416 -1.0628 0.9220
15.7665 14.8801 -1.1362 0.9168
15.7934 18.9955 -1.2947 0.9058
15.8298 24.5393 -1.5304 0.8896
6.9504 14.3076 -0.8336 0.9383
10.5682 30.7033 -1.7017 0.8780
6.7945 31.7524 -1.7017 0.8780
2.9216 32.3395 -1.7017 0.8780
-0.9936 32.4560 -1.7017 0.8780
-4.8945 32.1002 -1.7017 0.8780
-8.7239 31.2773 -1.7017 0.8780
-11.8375 28.5768 -1.6211 0.8835
-14.5220 25.7550 -1.5495 0.8883
-17.5176 23.8190 -1.5495 0.8883
-18.0591 19.1987 -1.3813 0.8998
-18.0705 15.0750 -1.2333 0.9100
-18.0799 11.7056 -1.1288 0.9173
-22.0633 10.7633 -1.2865 0.9064
-27.9412 9.6694 -1.5495 0.8883
-28.9022 6.2348 -1.5495 0.8883
-32.3346 2.9753 -1.7017 0.8780
-21.1426 -0.6121 -1.1085 0.9188
-32.1083 -4.8412 -1.7017 0.8780
-31.2918 -8.6720 -1.7017 0.8780
-30.0199 -12.3768 -1.7017 0.8780
-25.7791 -14.4792 -1.5495 0.8883
-23.8480 -17.4780 -1.5495 0.8883
-21.3868 -20.0504 -1.5364 0.8892
-18.9781 -22.6725 -1.5495 0.8883
-16.1101 -24.7926 -1.5495 0.8883
-13.0075 -26.5521 -1.5495 0.8883
-10.6702 -30.6680 -1.7017 0.8780
-6.8997 -31.7297 -1.7017 0.8780
-3.0290 -32.3296 -1.7017 0.8780
0.1776 -6.5104 -0.3413 0.9743
0.9735 -6.5304 -0.3460 0.9739
8.6199 -31.3061 -1.7017 0.8780
6.9987 -17.0557 -0.9662 0.9288
14.4363 -25.8031 -1.5495 0.8883
17.4383 -23.8771 -1.5495 0.8883
20.1864 -21.6037 -1.5495 0.8883
21.2517 -17.8490 -1.4545 0.8948
24.7658 -16.1513 -1.5495 0.8883
22.8756 -11.2536 -1.3361 0.9029
30.6502 -10.7211 -1.7017 0.8780
31.7182 -6.9524 -1.7017 0.8780
32.3245 -3.0828 -1.7017 0.8780
32.4605 0.8320 -1.7017 0.8780
29.2511 4.3110 -1.5495 0.8883
25.3906 6.9458 -1.3796 0.8999
19.6743 8.0351 -1.1138 0.9184
17.3791 9.6854 -1.0427 0.9234
16.3729 11.9161 -1.0613 0.9221
15.7652 14.6819 -1.1290 0.9173
15.7918 18.7390 -1.2843 0.9065
15.8274 24.1812 -1.5146 0.8907
6.9550 14.0784 -0.8229 0.9390
10.7721 30.6324 -1.7017 0.8780
7.0051 31.7066 -1.7017 0.8780
3.1365 32.3193 -1.7017 0.8780
-0.7781 32.4619 -1.7017 0.8780
-4.6810 32.1320 -1.7017 0.8780
-8.5161 31.3345 -1.7017 0.8780
-11.8327 29.1111 -1.6469 0.8817
-14.3504 25.8510 -1.5495 0.8883
-17.3589 23.9349 -1.5495 0.8883
-18.0584 19.4554 -1.3911 0.8991
-18.0700 15.2794 -1.2402 0.9096
-18.0794 11.8765 -1.1337 0.9170
-21.6945 10.7623 -1.2692 0.9076
-27.8763 9.8550 -1.5495 0.8883
-28.8602 6.4266 -1.5495 0.8883
-32.3141 3.1902 -1.7017 0.8780
-21.0850 -0.4703 -1.1053 0.9190
-32.1397 -4.6276 -1.7017 0.8780
-31.3486 -8.4640 -1.7017 0.8780
-30.1015 -12.1770 -1.7017 0.8780
-26.0131 -14.3843 -1.5578 0.8878
-23.9637 -17.3191 -1.5495 0.8883
-21.6729 -20.0496 -1.5473 0.8885
-19.1284 -22.5458 -1.5495 0.8883
-16.2746 -24.6850 -1.5495 0.8883
-13.1837 -26.4650 -1.5495 0.8883
-10.8738 -30.5964 -1.7017 0.8780
-7.1104 -31.6831 -1.7017 0.8780
-3.2439 -32.3087 -1.7017 0.8780
0.1344 -6.5097 -0.3412 0.9743
0.9289 -6.5284 -0.3456 0.9739
8.4119 -31.3627 -1.7017 0.8780
7.0166 -17.4282 -0.9846 0.9275
14.2647 -25.8984 -1.5495 0.8883
17.2792 -23.9924 -1.5495 0.8883
20.0426 -21.7372 -1.5495 0.8883
21.2425 -18.0834 -1.4620 0.8943
24.6580 -16.3154 -1.5495 0.8883
23.0276 -11.5191 -1.3494 0.9020
30.5783 -10.9246 -1.7017 0.8780
31.6712 -7.1631 -1.7017 0.8780
32.3033 -3.2976 -1.7017 0.8780
32.4653 0.6162 -1.7017 0.8780
16.1304 2.2678 -0.8537 0.9368
-19.4496 0.2339 -1.7017 0.9249
-19.3362 -2.1097 -1.7017 0.9249
-18.9415 -4.4227 -1.7017 0.9249
-18.2712 -6.6712 -1.7017 0.9249
-17.3350 -8.8227 -1.7017 0.9249
-16.1465 -10.8458 -1.7017 0.9249
-14.7231 -12.7111 -1.7017 0.9249
-13.0854 -14.3914 -1.7017 0.9249
-11.2573 -15.8623 -1.7017 0.9249
-9.2655 -17.1024 -1.7017 0.9249
-7.1387 -18.0936 -1.7017 0.9249
-4.9082 -18.8215 -1.7017 0.9249
-0.9688 -7.1655 -0.6326 0.9714
-0.0878 -6.4163 -0.5614 0.9746
0.6879 -6.4029 -0.5634 0.9745
1.4861 -6.4128 -0.5759 0.9739
6.6409 -18.2822 -1.7017 0.9249
8.7939 -17.3496 -1.7017 0.9249
10.8190 -16.1645 -1.7017 0.9249
12.6866 -14.7442 -1.7017 0.9249
14.3696 -13.1093 -1.7017 0.9249
15.8436 -11.2837 -1.7017 0.9249
17.0870 -9.2938 -1.7017 0.9249
18.0817 -7.1688 -1.7017 0.9249
18.8134 -4.9394 -1.7017 0.9249
19.2712 -2.6382 -1.7017 0.9249
19.4487 -0.2985 -1.7017 0.9249
19.3431 2.0455 -1.7017 0.9249
18.9043 4.3478 -1.6971 0.9251
16.6571 6.0192 -1.5495 0.9314
15.8112 7.9811 -1.5495 0.9314
14.7351 9.8269 -1.5495 0.9314
13.4447 11.5296 -1.5495 0.9314
12.5870 13.7512 -1.6310 0.9279
11.3100 15.8248 -1.7017 0.9249
7.0839 12.9725 -1.2931 0.9424
7.1988 18.0698 -1.7017 0.9249
4.9707 18.8051 -1.7017 0.9249
2.6702 19.2668 -1.7017 0.9249
0.1723 10.1316 -0.8865 0.9601
-2.0133 19.3465 -1.7017 0.9249
-4.3282 18.9633 -1.7017 0.9249
-6.5801 18.3042 -1.7017 0.9249
-8.7362 17.3787 -1.7017 0.9249
-10.7652 16.2003 -1.7017 0.9249
-11.8461 13.8602 -1.5952 0.9294
-13.0293 11.9660 -1.5477 0.9314
-14.3924 10.3223 -1.5495 0.9314
-15.5306 8.5143 -1.5495 0.9314
-16.4428 6.5823 -1.5495 0.9314
-18.6470 4.9620 -1.6882 0.9254
-19.2624 2.7022 -1.7017 0.9249
-19.4476 0.3631 -1.7017 0.9249
-19.3498 -1.9812 -1.7017 0.9249
-18.9705 -4.2967 -1.7017 0.9249
-18.3151 -6.5497 -1.7017 0.9249
-17.3932 -8.7073 -1.7017 0.9249
-16.2182 -10.7383 -1.7017 0.9249
-14.8072 -12.6130 -1.7017 0.9249
-13.1808 -14.3041 -1.7017 0.9249
-11.3625 -15.7872 -1.7017 0.9249
-9.3789 -17.0405 -1.7017 0.9249
-7.2588 -18.0458 -1.7017 0.9249
-5.0331 -18.7885 -1.7017 0.9249
-2.7342 -19.2579 -1.7017 0.9249
-0.1305 -6.4189 -0.5617 0.9746
0.6450 -6.4045 -0.5632 0.9745
1.4415 -6.4137 -0.5751 0.9740
6.5192 -18.3259 -1.7017 0.9249
8.6784 -17.4076 -1.7017 0.9249
10.7113 -16.2360 -1.7017 0.9249
12.5884 -14.8281 -1.7017 0.9249
14.2822 -13.2045 -1.7017 0.9249
15.7683 -11.3887 -1.7017 0.9249
17.0249 -9.4072 -1.7017 0.9249
18.0337 -7.2888 -1.7017 0.9249
18.7801 -5.0643 -1.7017 0.9249
19.2533 -2.7661 -1.7017 0.9249
19.4463 -0.4277 -1.7017 0.9249
19.3563 1.9169 -1.7017 0.9249
18.9533 4.2266 -1.6989 0.9250
16.6968 5.9084 -1.5495 0.9314
15.8638 7.8759 -1.5495 0.9314
14.8001 9.7288 -1.5495 0.9314
13.5210 11.4401 -1.5495 0.9314
12.5891 13.5713 -1.6195 0.9284
11.4149 15.7494 -1.7017 0.9249
7.1663 12.9187 -1.2925 0.9424
7.3187 18.0216 -1.7017 0.9249
5.0955 18.7717 -1.7017 0.9249
2.7981 19.2487 -1.7017 0.9249
0.4210 17.7935 -1.5572 0.9310
-1.8848 19.3595 -1.7017 0.9249
-4.2021 18.9917 -1.7017 0.9249
-6.4583 18.3475 -1.7017 0.9249
-8.6206 17.4364 -1.7017 0.9249
-10.6573 16.2715 -1.7017 0.9249
-11.8401 14.0410 -1.6069 0.9289
-12.8562 11.9655 -1.5366 0.9319
-14.3235 10.4178 -1.5495 0.9314
-15.4737 8.6173 -1.5495 0.9314
-16.3987 6.6914 -1.5495 0.9314
-18.4213 5.0332 -1.6707 0.9262
-19.2440 2.8301 -1.7017 0.9249
-19.4448 0.4923 -1.7017 0.9249
-19.3626 -1.8526 -1.7017 0.9249
-18.9986 -4.1705 -1.7017 0.9249
-18.3582 -6.4278 -1.7017 0.9249
-17.4507 -8.5916 -1.7017 0.9249
-16.2892 -10.6303 -1.7017 0.9249
-14.8907 -12.5143 -1.7017 0.9249
-13.2755 -14.2163 -1.7017 0.9249
-11.4672 -15.7113 -1.7017 0.9249
-9.4919 -16.9778 -1.7017 0.9249
-7.3785 -17.9972 -1.7017 0.9249
-5.1578 -18.7547 -1.7017 0.9249
-2.8620 -19.2393 -1.7017 0.9249
-0.1733 -6.4215 -0.5620 0.9745
0.6022 -6.4061 -0.5629 0.9745
1.3969 -6.4146 -0.5744 0.9740
2.3360 -6.7075 -0.6214 0.9719
8.5626 -17.4649 -1.7017 0.9249
10.6032 -16.3068 -1.7017 0.9249
12.4896 -14.9115 -1.7017 0.9249
14.1942 -13.2991 -1.7017 0.9249
15.6923 -11.4932 -1.7017 0.9249
16.9620 -9.5201 -1.7017 0.9249
17.9849 -7.4085 -1.7017 0.9249
18.7461 -5.1890 -1.7017 0.9249
19.2345 -2.8940 -1.7017 0.9249
19.4430 -0.5569 -1.7017 0.9249
19.3686 1.7883 -1.7017 0.9249
19.0016 4.1051 -1.7008 0.9249
16.7356 5.7974 -1.5495 0.9314
15.9158 7.7703 -1.5495 0.9314
14.8644 9.6302 -1.5495 0.9314
13.5967 11.3500 -1.5495 0.9314
12.5912 13.3940 -1.6083 0.9288
11.5193 15.6732 -1.7017 0.9249
7.2573 12.8802 -1.2934 0.9424
6.8874 16.6414 -1.5757 0.9302
5.2201 18.7374 -1.7017 0.9249
2.9260 19.2297 -1.7017 0.9249
0.5392 17.7903 -1.5572 0.9310
-1.7561 19.3716 -1.7017 0.9249
-4.0758 19.0192 -1.7017 0.9249
-6.3363 18.3900 -1.7017 0.9249
-8.5045 17.4933 -1.7017 0.9249
-10.5490 16.3420 -1.7017 0.9249
-11.8378 14.2290 -1.6194 0.9284
-12.7869 12.0606 -1.5378 0.9319
-14.2539 10.5127 -1.5495 0.9314
-15.4161 8.7199 -1.5495 0.9314
-16.3538 6.8002 -1.5495 0.9314
-18.2141 5.1069 -1.6550 0.9269
-19.2248 2.9579 -1.7017 0.9249
-19.4410 0.6215 -1.7017 0.9249
-19.3744 -1.7239 -1.7017 0.9249
-19.0259 -4.0442 -1.7017 0.9249
-18.4005 -6.3057 -1.7017 0.9249
-17.5074 -8.4754 -1.7017 0.9249
-16.3595 -10.5218 -1.7017 0.9249
-14.9735 -12.4151 -1.7017 0.9249
-13.3697 -14.1277 -1.7017 0.9249
-11.5713 -15.6348 -1.7017 0.9249
-9.6045 -16.9143 -1.7017 0.9249
-7.4979 -17.9478 -1.7017 0.9249
-5.2823 -18.7200 -1.7017 0.9249
-2.9898 -19.2198 -1.7017 0.9249
-0.2161 -6.4241 -0.5624 0.9745
0.5594 -6.4077 -0.5627 0.9745
1.3526 -6.4154 -0.5736 0.9740
2.2606 -6.6325 -0.6131 0.9723
8.4464 -17.5214 -1.7017 0.9249
10.4947 -16.3769 -1.7017 0.9249
12.3902 -14.9941 -1.7017 0.9249
14.1055 -13.3931 -1.7017 0.9249
15.6155 -11.5972 -1.7017 0.9249
16.8984 -9.6326 -1.7017 0.9249
17.9353 -7.5277 -1.7017 0.9249
18.7112 -5.3134 -1.7017 0.9249
19.2148 -3.0217 -1.7017 0.9249
19.4389 -0.6861 -1.7017 0.9249
19.3801 1.6595 -1.7017 0.9249
19.0392 3.9810 -1.7017 0.9249
16.7738 5.6861 -1.5495 0.9314
15.9671 7.6644 -1.5495 0.9314
14.9280 9.5312 -1.5495 0.9314
13.6718 11.2594 -1.5495 0.9314
12.5932 13.2191 -1.5973 0.9293
11.6231 15.5963 -1.7017 0.9249
7.3484 12.8416 -1.2944 0.9423
6.8874 16.3334 -1.5508 0.9313
5.3445 18.7023 -1.7017 0.9249
3.0537 19.2098 -1.7017 0.9249
0.6574 17.7863 -1.5572 0.9310
-1.6273 19.3828 -1.7017 0.9249
-3.9494 19.0458 -1.7017 0.9249
-6.2139 18.4317 -1.7017 0.9249
-8.3881 17.5494 -1.7017 0.9249
-10.4402 16.4117 -1.7017 0.9249
-11.8354 14.4200 -1.6321 0.9278
-12.7865 12.2217 -1.5475 0.9314
-14.1838 10.6072 -1.5495 0.9314
-15.3578 8.8221 -1.5495 0.9314
-16.3083 6.9087 -1.5495 0.9314
-18.0268 5.1839 -1.6411 0.9275
-19.2047 3.0856 -1.7017 0.9249
-19.4365 0.7507 -1.7017 0.9249
-19.3855 -1.5951 -1.7017 0.9249
-19.0523 -3.9177 -1.7017 0.9249
-18.4420 -6.1833 -1.7017 0.9249
-17.5633 -8.3589 -1.7017 0.9249
-16.4290 -10.4129 -1.7017 0.9249
-15.0557 -12.3153 -1.7017 0.9249
-13.4632 -14.0386 -1.7017 0.9249
-11.6749 -15.5576 -1.7017 0.9249
-9.7167 -16.8501 -1.7017 0.9249
-7.6170 -17.8975 -1.7017 0.9249
-5.4066 -18.6845 -1.7017 0.9249
-3.1174 -19.1995 -1.7017 0.9249
-0.2589 -6.4267 -0.5627 0.9745
0.5167 -6.4093 -0.5626 0.9745
1.3083 -6.4162 -0.5729 0.9740
2.1917 -6.5731 -0.6062 0.9726
8.3297 -17.5771 -1.7017 0.9249
10.3856 -16.4463 -1.7017 0.9249
12.2903 -15.0761 -1.7017 0.9249
14.0162 -13.4865 -1.7017 0.9249
15.5381 -11.7007 -1.7017 0.9249
16.8340 -9.7446 -1.7017 0.9249
17.8849 -7.6468 -1.7017 0.9249
18.6755 -5.4376 -1.7017 0.9249
19.1943 -3.1493 -1.7017 0.9249
19.4339 -0.8152 -1.7017 0.9249
19.3907 1.5307 -1.7017 0.9249
19.0653 3.8544 -1.7017 0.9249
16.8112 5.5745 -1.5495 0.9314
16.0177 7.5581 -1.5495 0.9314
14.9911 9.4318 -1.5495 0.9314
13.7463 11.1683 -1.5495 0.9314
12.5952 13.0465 -1.5865 0.9298
11.7265 15.5187 -1.7017 0.9249
7.4483 12.8179 -1.2970 0.9422
6.9905 16.2752 -1.5497 0.9313
5.4687 18.6664 -1.7017 0.9249
3.1812 19.1891 -1.7017 0.9249
0.7755 17.7815 -1.5572 0.9310
-1.4985 19.3932 -1.7017 0.9249
-3.8227 19.0716 -1.7017 0.9249
-6.0914 18.4726 -1.7017 0.9249
-8.2713 17.6047 -1.7017 0.9249
-10.3309 16.4807 -1.7017 0.9249
-11.8330 14.6141 -1.6451 0.9273
-12.7217 12.3227 -1.5495 0.9314
-14.1130 10.7012 -1.5495 0.9314
-15.2988 8.9240 -1.5495 0.9314
-16.2620 7.0170 -1.5495 0.9314
-17.8426 5.2595 -1.6274 0.9280
-19.1838 3.2131 -1.7017 0.9249
-19.4311 0.8798 -1.7017 0.9249
-19.3956 -1.4663 -1.7017 0.9249
-19.0780 -3.7910 -1.7017 0.9249
-18.4827 -6.0606 -1.7017 0.9249
-17.6184 -8.2420 -1.7017 0.9249
-16.4978 -10.3035 -1.7017 0.9249
-15.1372 -12.2150 -1.7017 0.9249
-13.5562 -13.9488 -1.7017 0.9249
-11.7780 -15.4796 -1.7017 0.9249
-9.8285 -16.7852 -1.7017 0.9249
-7.7358 -17.8465 -1.7017 0.9249
-5.5307 -18.6481 -1.7017 0.9249
-3.2450 -19.1784 -1.7017 0.9249
-0.3018 -6.4294 -0.5631 0.9745
0.4739 -6.4109 -0.5624 0.9745
1.2640 -6.4168 -0.5722 0.9741
2.1357 -6.5499 -0.6027 0.9727
8.2127 -17.6321 -1.7017 0.9249
10.2761 -16.5149 -1.7017 0.9249
12.1899 -15.1574 -1.7017 0.9249
13.9263 -13.5794 -1.7017 0.9249
15.4601 -11.8037 -1.7017 0.9249
16.7689 -9.8563 -1.7017 0.9249
17.8337 -7.7654 -1.7017 0.9249
18.6389 -5.5616 -1.7017 0.9249
19.1730 -3.2769 -1.7017 0.9249
19.4281 -0.9444 -1.7017 0.9249
19.4004 1.4018 -1.7017 0.9249
19.0905 3.7276 -1.7017 0.9249
16.8479 5.4626 -1.5495 0.9314
16.0676 7.4515 -1.5495 0.9314
15.0534 9.3320 -1.5495 0.9314
13.8202 11.0767 -1.5495 0.9314
12.5972 12.8762 -1.5760 0.9302
11.8294 15.4404 -1.7017 0.9249
7.5569 12.8080 -1.3011 0.9420
7.1204 16.2784 -1.5545 0.9311
5.5925 18.6297 -1.7017 0.9249
3.3087 19.1675 -1.7017 0.9249
0.8936 17.7760 -1.5572 0.9310
-1.2533 17.7543 -1.5572 0.9310
-3.6960 19.0966 -1.7017 0.9249
-5.9685 18.5127 -1.7017 0.9249
-8.1541 17.6593 -1.7017 0.9249
-10.2211 16.5490 -1.7017 0.9249
-11.8305 14.8111 -1.6584 0.9267
-12.6396 12.4069 -1.5495 0.9314
-14.0416 10.7947 -1.5495 0.9314
-15.2392 9.0254 -1.5495 0.9314
-16.2151 7.1248 -1.5495 0.9314
-17.6615 5.3339 -1.6141 0.9286
-19.1620 3.3405 -1.7017 0.9249
-19.4248 1.0089 -1.7017 0.9249
-19.4050 -1.3374 -1.7017 0.9249
-19.1027 -3.6642 -1.7017 0.9249
-18.5225 -5.9377 -1.7017 0.9249
-17.6728 -8.1248 -1.7017 0.9249
-16.5659 -10.1937 -1.7017 0.9249
-15.2180 -12.1142 -1.7017 0.9249
-13.6486 -13.8584 -1.7017 0.9249
-11.8806 -15.4010 -1.7017 0.9249
-9.9397 -16.7195 -1.7017 0.9249
-7.8542 -17.7947 -1.7017 0.9249
-5.6544 -18.6110 -1.7017 0.9249
-3.3723 -19.1564 -1.7017 0.9249
-0.3448 -6.4319 -0.5635 0.9745
0.4312 -6.4124 -0.5623 0.9745
1.2187 -6.4112 -0.5710 0.9741
2.0804 -6.5269 -0.5993 0.9729
8.0954 -17.6863 -1.7017 0.9249
10.1662 -16.5828 -1.7017 0.9249
12.0889 -15.2381 -1.7017 0.9249
13.8358 -13.6716 -1.7017 0.9249
15.3813 -11.9061 -1.7017 0.9249
16.7030 -9.9675 -1.7017 0.9249
17.7816 -7.8838 -1.7017 0.9249
18.6016 -5.6853 -1.7017 0.9249
19.1508 -3.4042 -1.7017 0.9249
19.4213 -1.0734 -1.7017 0.9249
19.4093 1.2729 -1.7017 0.9249
19.1148 3.6007 -1.7017 0.9249
16.8838 5.3506 -1.5495 0.9314
16.1167 7.3446 -1.5495 0.9314
15.1151 9.2318 -1.5495 0.9314
13.8935 10.9846 -1.5495 0.9314
12.5991 12.7081 -1.5656 0.9307
11.9317 15.3615 -1.7017 0.9249
7.6661 12.7981 -1.3052 0.9419
7.9133 17.7685 -1.7017 0.9249
5.7162 18.5921 -1.7017 0.9249
3.4360 19.1451 -1.7017 0.9249
1.0118 17.7696 -1.5572 0.9310
-1.1352 17.7622 -1.5572 0.9310
-3.5690 19.1208 -1.7017 0.9249
-5.8453 18.5519 -1.7017 0.9249
-8.0366 17.7131 -1.7017 0.9249
-10.1110 16.6165 -1.7017 0.9249
-11.8280 15.0114 -1.6720 0.9261
-12.5569 12.4906 -1.5495 0.9314
-13.9696 10.8878 -1.5495 0.9314
-15.1789 9.1265 -1.5495 0.9314
-16.1674 7.2324 -1.5495 0.9314
-17.4882 5.4086 -1.6015 0.9291
-19.1394 3.4677 -1.7017 0.9249
-19.4177 1.1379 -1.7017 0.9249
-19.4134 -1.2084 -1.7017 0.9249
-19.1267 -3.5372 -1.7017 0.9249
-18.5616 -5.8145 -1.7017 0.9249
-17.7264 -8.0072 -1.7017 0.9249
-16.6333 -10.0834 -1.7017 0.9249
-15.2982 -12.0128 -1.7017 0.9249
-13.7404 -13.7675 -1.7017 0.9249
-11.9827 -15.3218 -1.7017 0.9249
-10.0506 -16.6531 -1.7017 0.9249
-7.9722 -17.7422 -1.7017 0.9249
-5.7779 -18.5730 -1.7017 0.9249
-3.4995 -19.1336 -1.7017 0.9249
-0.3877 -6.4337 -0.5639 0.9745
0.3885 -6.4127 -0.5621 0.9745
1.1737 -6.4057 -0.5698 0.9742
2.0256 -6.5041 -0.5960 0.9730
7.9777 -17.7397 -1.7017 0.9249
10.0557 -16.6500 -1.7017 0.9249
11.9874 -15.3181 -1.7017 0.9249
13.7446 -13.7632 -1.7017 0.9249
15.3018 -12.0081 -1.7017 0.9249
16.6364 -10.0783 -1.7017 0.9249
17.7289 -8.0017 -1.7017 0.9249
18.5634 -5.8088 -1.7017 0.9249
19.1278 -3.5313 -1.7017 0.9249
19.4138 -1.2024 -1.7017 0.9249
19.4173 1.1439 -1.7017 0.9249
19.1383 3.4737 -1.7017 0.9249
16.9970 5.2625 -1.5567 0.9310
16.1651 7.2374 -1.5495 0.9314
15.1761 9.1312 -1.5495 0.9314
13.9662 10.8920 -1.5495 0.9314
12.6022 12.5434 -1.5556 0.9311
12.0335 15.2819 -1.7017 0.9249
7.7760 12.7881 -1.3094 0.9417
8.0312 17.7156 -1.7017 0.9249
5.8396 18.5537 -1.7017 0.9249
3.5631 19.1219 -1.7017 0.9249
1.1298 17.7625 -1.5572 0.9310
-1.0172 17.7693 -1.5572 0.9310
-3.4418 19.1441 -1.7017 0.9249
-5.7219 18.5903 -1.7017 0.9249
-7.9188 17.7661 -1.7017 0.9249
-10.0004 16.6833 -1.7017 0.9249
-11.8254 15.2150 -1.6859 0.9255
-12.4737 12.5738 -1.5495 0.9314
-13.8969 10.9803 -1.5495 0.9314
-15.1179 9.2272 -1.5495 0.9314
-16.1189 7.3397 -1.5495 0.9314
-17.3342 5.4875 -1.5907 0.9296
-19.1159 3.5948 -1.7017 0.9249
-19.4097 1.2670 -1.7017 0.9249
-19.4210 -1.0794 -1.7017 0.9249
-19.1497 -3.4100 -1.7017 0.9249
-18.5998 -5.6910 -1.7017 0.9249
-17.7792 -7.8892 -1.7017 0.9249
-16.6999 -9.9726 -1.7017 0.9249
-15.3776 -11.9109 -1.7017 0.9249
-13.8315 -13.6759 -1.7017 0.9249
-12.0842 -15.2418 -1.7017 0.9249
-10.1610 -16.5860 -1.7017 0.9249
-8.0899 -17.6888 -1.7017 0.9249
-5.9013 -18.5342 -1.7017 0.9249
-3.6266 -19.1099 -1.7017 0.9249
-0.4307 -6.4341 -0.5642 0.9744
0.3457 -6.4120 -0.5618 0.9745
1.1290 -6.4018 -0.5687 0.9742
1.9750 -6.4932 -0.5938 0.9731
7.8597 -17.7923 -1.7017 0.9249
9.9449 -16.7165 -1.7017 0.9249
11.8853 -15.3974 -1.7017 0.9249
13.6529 -13.8542 -1.7017 0.9249
15.2217 -12.1095 -1.7017 0.9249
16.5691 -10.1885 -1.7017 0.9249
17.6753 -8.1193 -1.7017 0.9249
18.5244 -5.9320 -1.7017 0.9249
19.1039 -3.6583 -1.7017 0.9249
19.4054 -1.3314 -1.7017 0.9249
19.4245 1.0148 -1.7017 0.9249
19.1610 3.3464 -1.7017 0.9249
17.1508 5.1854 -1.5676 0.9306
16.2129 7.1298 -1.5495 0.9314
15.2364 9.0301 -1.5495 0.9314
14.0382 10.7990 -1.5495 0.9314
12.6358 12.4108 -1.5495 0.9314
12.1338 15.2004 -1.7016 0.9249
7.8921 12.7868 -1.3146 0.9414
6.9249 15.0092 -1.4462 0.9358
5.9628 18.5145 -1.7017 0.9249
3.6900 19.0978 -1.7017 0.9249
1.2478 17.7546 -1.5572 0.9310
-0.8992 17.7757 -1.5572 0.9310
-3.3146 19.1665 -1.7017 0.9249
-5.5982 18.6280 -1.7017 0.9249
-7.8005 17.8183 -1.7017 0.9249
-9.8893 16.7494 -1.7017 0.9249
-11.7856 15.3736 -1.6948 0.9252
-12.3898 12.6564 -1.5495 0.9314
-13.8236 11.0725 -1.5495 0.9314
-15.0562 9.3274 -1.5495 0.9314
-16.0698 7.4466 -1.5495 0.9314
-17.1824 5.5653 -1.5802 0.9300
-19.0916 3.7218 -1.7017 0.9249
-19.4008 1.3959 -1.7017 0.9249
-19.4278 -0.9504 -1.7017 0.9249
-19.1720 -3.2827 -1.7017 0.9249
-18.6372 -5.5674 -1.7017 0.9249
-17.8312 -7.7710 -1.7017 0.9249
-16.7658 -9.8615 -1.7017 0.9249
-15.4564 -11.8084 -1.7017 0.9249
-13.9221 -13.5836 -1.7017 0.9249
-12.1852 -15.1612 -1.7017 0.9249
-10.2710 -16.5181 -1.7017 0.9249
-8.2073 -17.6346 -1.7017 0.9249
-6.0242 -18.4946 -1.7017 0.9249
-3.7535 -19.0854 -1.7017 0.9249
-0.4737 -6.4346 -0.5645 0.9744
0.3029 -6.4114 -0.5615 0.9746
1.0854 -6.4030 -0.5682 0.9743
1.9253 -6.4845 -0.5918 0.9732
7.1871 -16.5665 -1.5799 0.9301
9.8336 -16.7822 -1.7017 0.9249
11.7828 -15.4760 -1.7017 0.9249
13.5605 -13.9446 -1.7017 0.9249
15.1409 -12.2104 -1.7017 0.9249
16.5010 -10.2984 -1.7017 0.9249
17.6210 -8.2366 -1.7017 0.9249
18.4845 -6.0550 -1.7017 0.9249
19.0791 -3.7852 -1.7017 0.9249
19.3961 -1.4603 -1.7017 0.9249
19.4308 0.8858 -1.7017 0.9249
19.1828 3.2190 -1.7017 0.9249
17.3071 5.1074 -1.5787 0.9301
16.2599 7.0219 -1.5495 0.9314
15.2961 8.9287 -1.5495 0.9314
14.1097 10.7055 -1.5495 0.9314
12.7180 12.3266 -1.5495 0.9314
12.2236 15.1059 -1.7001 0.9249
8.0175 12.7989 -1.3213 0.9412
6.9235 14.7480 -1.4254 0.9367
6.0857 18.4744 -1.7017 0.9249
3.8169 19.0728 -1.7017 0.9249
1.3658 17.7459 -1.5572 0.9310
-0.7810 17.7813 -1.5572 0.9310
-3.1871 19.1881 -1.7017 0.9249
-5.4744 18.6647 -1.7017 0.9249
-7.6820 17.8698 -1.7017 0.9249
-9.7778 16.8148 -1.7017 0.9249
-11.6939 15.4657 -1.6963 0.9251
-12.3054 12.7384 -1.5495 0.9314
-13.7498 11.1640 -1.5495 0.9314
-14.9940 9.4272 -1.5495 0.9314
-16.0200 7.5532 -1.5495 0.9314
-17.0326 5.6420 -1.5698 0.9305
-19.0665 3.8485 -1.7017 0.9249
-19.3911 1.5248 -1.7017 0.9249
-19.4336 -0.8212 -1.7017 0.9249
-19.1934 -3.1552 -1.7017 0.9249
-18.6738 -5.4433 -1.7017 0.9249
-17.8825 -7.6523 -1.7017 0.9249
-16.8310 -9.7498 -1.7017 0.9249
-15.5345 -11.7055 -1.7017 0.9249
-14.0121 -13.4908 -1.7017 0.9249
-12.2857 -15.0799 -1.7017 0.9249
-10.3805 -16.4495 -1.7017 0.9249
-8.3243 -17.5797 -1.7017 0.9249
-6.1470 -18.4542 -1.7017 0.9249
-3.8802 -19.0600 -1.7017 0.9249
-0.5168 -6.4352 -0.5648 0.9744
0.2603 -6.4107 -0.5613 0.9746
1.0419 -6.4042 -0.5677 0.9743
1.8760 -6.4758 -0.5899 0.9733
7.0552 -16.5633 -1.5751 0.9303
9.7218 -16.8472 -1.7017 0.9249
11.6797 -15.5540 -1.7017 0.9249
13.4675 -14.0345 -1.7017 0.9249
15.0595 -12.3107 -1.7017 0.9249
16.4322 -10.4079 -1.7017 0.9249
17.5659 -8.3535 -1.7017 0.9249
18.4439 -6.1777 -1.7017 0.9249
19.0536 -3.9119 -1.7017 0.9249
19.3860 -1.5892 -1.7017 0.9249
19.4363 0.7567 -1.7017 0.9249
19.2038 3.0914 -1.7017 0.9249
17.4736 5.0306 -1.5908 0.9296
16.3062 6.9137 -1.5495 0.9314
15.3551 8.8268 -1.5495 0.9314
14.1805 10.6115 -1.5495 0.9314
12.7997 12.2417 -1.5495 0.9314
12.3127 15.0110 -1.6986 0.9250
8.1443 12.8112 -1.3281 0.9409
6.9316 14.5136 -1.4072 0.9375
6.2084 18.4336 -1.7017 0.9249
3.9435 19.0470 -1.7017 0.9249
1.4837 17.7365 -1.5572 0.9310
-0.6628 17.7861 -1.5572 0.9310
-3.0595 19.2089 -1.7017 0.9249
-5.3503 18.7007 -1.7017 0.9249
-7.5630 17.9204 -1.7017 0.9249
-9.6659 16.8793 -1.7017 0.9249
-11.6016 15.5574 -1.6979 0.9250
-12.2206 12.8199 -1.5495 0.9314
-13.6752 11.2552 -1.5495 0.9314
-14.9309 9.5267 -1.5495 0.9314
-15.9694 7.6595 -1.5495 0.9314
-16.8845 5.7179 -1.5596 0.9309
-19.0405 3.9752 -1.7017 0.9249
-19.3806 1.6537 -1.7017 0.9249
-19.4387 -0.6921 -1.7017 0.9249
-19.2139 -3.0276 -1.7017 0.9249
-18.7095 -5.3192 -1.7017 0.9249
-17.9330 -7.5332 -1.7017 0.9249
-16.8954 -9.6378 -1.7017 0.9249
-15.6120 -11.6020 -1.7017 0.9249
-14.1014 -13.3975 -1.7017 0.9249
-12.3856 -14.9979 -1.7017 0.9249
-10.4896 -16.3802 -1.7017 0.9249
-8.4410 -17.5240 -1.7017 0.9249
-6.2696 -18.4129 -1.7017 0.9249
-4.0068 -19.0338 -1.7017 0.9249
-0.5599 -6.4360 -0.5652 0.9744
0.2176 -6.4100 -0.5611 0.9746
0.9984 -6.4054 -0.5672 0.9743
1.8270 -6.4672 -0.5880 0.9734
6.9942 -16.7277 -1.5863 0.9298
9.6097 -16.9114 -1.7017 0.9249
11.5760 -15.6313 -1.7017 0.9249
13.3740 -14.1236 -1.7017 0.9249
14.9773 -12.4106 -1.7017 0.9249
16.3627 -10.5168 -1.7017 0.9249
17.5100 -8.4701 -1.7017 0.9249
18.4025 -6.3000 -1.7017 0.9249
19.0271 -4.0384 -1.7017 0.9249
19.3750 -1.7179 -1.7017 0.9249
19.4409 0.6275 -1.7017 0.9249
19.2239 2.9639 -1.7017 0.9249
17.6516 4.9550 -1.6040 0.9290
16.3517 6.8053 -1.5495 0.9314
15.4134 8.7246 -1.5495 0.9314
14.2507 10.5171 -1.5495 0.9314
12.8807 12.1565 -1.5495 0.9314
12.4013 14.9156 -1.6971 0.9251
8.2728 12.8245 -1.3352 0.9406
6.9338 14.2736 -1.3883 0.9383
6.3306 18.3920 -1.7017 0.9249
4.0700 19.0204 -1.7017 0.9249
1.6014 17.7262 -1.5572 0.9310
-0.5446 17.7901 -1.5572 0.9310
-2.9319 19.2288 -1.7017 0.9249
-5.2258 18.7358 -1.7017 0.9249
-7.4439 17.9702 -1.7017 0.9249
-9.5534 16.9432 -1.7017 0.9249
-11.5087 15.6486 -1.6995 0.9250
-12.1351 12.9008 -1.5495 0.9314
-13.6002 11.3457 -1.5495 0.9314
-14.8673 9.6256 -1.5495 0.9314
-15.9182 7.7655 -1.5495 0.9314
-16.7491 5.7962 -1.5506 0.9313
-19.0136 4.1016 -1.7017 0.9249
-19.3692 1.7823 -1.7017 0.9249
-19.4428 -0.5629 -1.7017 0.9249
-19.2336 -2.9000 -1.7017 0.9249
-18.7445 -5.1947 -1.7017 0.9249
-17.9826 -7.4140 -1.7017 0.9249
-16.9591 -9.5253 -1.7017 0.9249
-15.6887 -11.4981 -1.7017 0.9249
-14.1901 -13.3034 -1.7017 0.9249
-12.4849 -14.9153 -1.7017 0.9249
-10.5982 -16.3101 -1.7017 0.9249
-8.5571 -17.4676 -1.7017 0.9249
-6.3917 -18.3708 -1.7017 0.9249
-4.1331 -19.0068 -1.7017 0.9249
-0.6040 -6.4462 -0.5664 0.9743
0.1749 -6.4101 -0.5610 0.9746
0.9551 -6.4065 -0.5667 0.9743
1.7776 -6.4560 -0.5858 0.9735
6.9942 -17.0448 -1.6119 0.9287
9.4971 -16.9749 -1.7017 0.9249
11.4720 -15.7078 -1.7017 0.9249
13.2799 -14.2122 -1.7017 0.9249
14.8946 -12.5097 -1.7017 0.9249
16.2924 -10.6253 -1.7017 0.9249
17.4533 -8.5861 -1.7017 0.9249
18.3602 -6.4222 -1.7017 0.9249
18.9999 -4.1646 -1.7017 0.9249
19.3631 -1.8466 -1.7017 0.9249
19.4446 0.4984 -1.7017 0.9249
19.2431 2.8360 -1.7017 0.9249
17.8325 4.8782 -1.6175 0.9285
16.3966 6.6964 -1.5495 0.9314
15.4710 8.6220 -1.5495 0.9314
14.3203 10.4222 -1.5495 0.9314
12.9612 12.0706 -1.5495 0.9314
12.4891 14.8199 -1.6956 0.9251
8.4365 12.8893 -1.3477 0.9400
6.9272 14.0223 -1.3683 0.9391
6.4527 18.3495 -1.7017 0.9249
4.1962 18.9930 -1.7017 0.9249
1.7192 17.7152 -1.5572 0.9310
-0.4265 17.7933 -1.5572 0.9310
-2.8040 19.2478 -1.7017 0.9249
-5.1013 18.7701 -1.7017 0.9249
-7.3243 18.0193 -1.7017 0.9249
-9.4406 17.0064 -1.7017 0.9249
-11.4151 15.7394 -1.7010 0.9249
-12.0490 12.9812 -1.5495 0.9314
-13.5245 11.4359 -1.5495 0.9314
-14.8030 9.7242 -1.5495 0.9314
-15.8663 7.8710 -1.5495 0.9314
-16.6986 5.9033 -1.5495 0.9314
-18.9860 4.2278 -1.7017 0.9249
-19.3569 1.9110 -1.7017 0.9249
-19.4462 -0.4338 -1.7017 0.9249
-19.2524 -2.7720 -1.7017 0.9249
-18.7786 -5.0701 -1.7017 0.9249
-18.0315 -7.2943 -1.7017 0.9249
-17.0219 -9.4125 -1.7017 0.9249
-15.7648 -11.3935 -1.7017 0.9249
-14.2782 -13.2088 -1.7017 0.9249
-12.5838 -14.8320 -1.7017 0.9249
-10.7064 -16.2393 -1.7017 0.9249
-8.6730 -17.4103 -1.7017 0.9249
-6.5137 -18.3279 -1.7017 0.9249
-4.2593 -18.9789 -1.7017 0.9249
-0.6504 -6.4778 -0.5696 0.9742
0.1323 -6.4103 -0.5610 0.9746
0.9114 -6.4054 -0.5660 0.9744
1.7278 -6.4419 -0.5835 0.9736
7.2643 -18.0436 -1.7017 0.9249
9.3842 -17.0375 -1.7017 0.9249
11.3673 -15.7837 -1.7017 0.9249
13.1852 -14.3000 -1.7017 0.9249
14.8111 -12.6084 -1.7017 0.9249
16.2215 -10.7332 -1.7017 0.9249
17.3959 -8.7020 -1.7017 0.9249
18.3171 -6.5441 -1.7017 0.9249
18.9718 -4.2908 -1.7017 0.9249
19.3504 -1.9753 -1.7017 0.9249
19.4475 0.3691 -1.7017 0.9249
19.2616 2.7080 -1.7017 0.9249
-13.8586 0.1667 -1.7017 0.9457
-13.7778 -1.5033 -1.7017 0.9457
-13.4966 -3.1513 -1.7017 0.9457
-13.0189 -4.7535 -1.7017 0.9457
-12.3518 -6.2865 -1.7017 0.9457
-11.5050 -7.7281 -1.7017 0.9457
-10.4908 -9.0571 -1.7017 0.9457
-9.3239 -10.2544 -1.7017 0.9457
-8.0213 -11.3025 -1.7017 0.9457
-6.6020 -12.1861 -1.7017 0.9457
-5.0866 -12.8924 -1.7017 0.9457
-1.7664 -6.7739 -0.8595 0.9722
-0.8566 -6.3354 -0.7850 0.9746
-0.0865 -6.3216 -0.7763 0.9748
0.6779 -6.3102 -0.7793 0.9747
1.4578 -6.2905 -0.7928 0.9743
4.7318 -13.0268 -1.7017 0.9457
6.2660 -12.3622 -1.7017 0.9457
7.7089 -11.5178 -1.7017 0.9457
9.0397 -10.5058 -1.7017 0.9457
10.2389 -9.3409 -1.7017 0.9457
11.2892 -8.0400 -1.7017 0.9457
12.1751 -6.6222 -1.7017 0.9457
12.8840 -5.1080 -1.7017 0.9457
13.4053 -3.5195 -1.7017 0.9457
13.7315 -1.8798 -1.7017 0.9457
13.8579 -0.2127 -1.7017 0.9457
13.7827 1.4575 -1.7017 0.9457
13.5070 3.1065 -1.7017 0.9457
13.0346 4.7102 -1.7017 0.9457
12.3726 6.2454 -1.7017 0.9457
11.5306 7.6898 -1.7017 0.9457
10.5208 9.0222 -1.7017 0.9457
9.3579 10.2234 -1.7017 0.9457
8.0588 11.2758 -1.7017 0.9457
6.6424 12.1641 -1.7017 0.9457
5.1294 12.8754 -1.7017 0.9457
3.5418 13.3994 -1.7017 0.9457
1.7410 12.5620 -1.5572 0.9502
0.1716 10.0853 -1.2385 0.9602
-1.3127 12.6139 -1.5572 0.9502
-3.0840 13.5121 -1.7017 0.9457
-4.6885 13.0425 -1.7017 0.9457
-6.2249 12.3830 -1.7017 0.9457
-7.6706 11.5434 -1.7017 0.9457
-9.0048 10.5358 -1.7017 0.9457
-10.2078 9.3748 -1.7017 0.9457
-11.2624 8.0775 -1.7017 0.9457
-12.1531 6.6626 -1.7017 0.9457
-12.8669 5.1508 -1.7017 0.9457
-13.3935 3.5640 -1.7017 0.9457
-13.7252 1.9254 -1.7017 0.9457
-13.8572 0.2587 -1.7017 0.9457
-13.7875 -1.4117 -1.7017 0.9457
-13.5172 -3.0616 -1.7017 0.9457
-13.0502 -4.6669 -1.7017 0.9457
-12.3933 -6.2043 -1.7017 0.9457
-11.5561 -7.6515 -1.7017 0.9457
-10.5507 -8.9872 -1.7017 0.9457
-9.3918 -10.1922 -1.7017 0.9457
-8.0962 -11.2490 -1.7017 0.9457
-6.6828 -12.1420 -1.7017 0.9457
-5.1722 -12.8583 -1.7017 0.9457
-1.8712 -6.9851 -0.8879 0.9713
-0.9008 -6.3451 -0.7869 0.9745
-0.1285 -6.3214 -0.7763 0.9748
0.6357 -6.3117 -0.7789 0.9748
1.4138 -6.2908 -0.7917 0.9744
2.2788 -6.4057 -0.8348 0.9730
6.1837 -12.4036 -1.7017 0.9457
7.6322 -11.5688 -1.7017 0.9457
8.9697 -10.5656 -1.7017 0.9457
10.1766 -9.4087 -1.7017 0.9457
11.2355 -8.1149 -1.7017 0.9457
12.1309 -6.7030 -1.7017 0.9457
12.8497 -5.1935 -1.7017 0.9457
13.3816 -3.6085 -1.7017 0.9457
13.7187 -1.9710 -1.7017 0.9457
13.8562 -0.3048 -1.7017 0.9457
13.7921 1.3659 -1.7017 0.9457
13.5273 3.0166 -1.7017 0.9457
13.0656 4.6235 -1.7017 0.9457
12.4139 6.1631 -1.7017 0.9457
11.5815 7.6130 -1.7017 0.9457
10.5805 8.9521 -1.7017 0.9457
9.4256 10.1610 -1.7017 0.9457
8.1335 11.2220 -1.7017 0.9457
6.7231 12.1197 -1.7017 0.9457
5.2149 12.8411 -1.7017 0.9457
3.6307 13.3756 -1.7017 0.9457
1.8244 12.5502 -1.5572 0.9502
0.2388 10.0928 -1.2396 0.9601
-1.2289 12.6224 -1.5572 0.9502
-2.9942 13.5323 -1.7017 0.9457
-4.6018 13.0733 -1.7017 0.9457
-6.1425 12.4241 -1.7017 0.9457
-7.5938 11.5941 -1.7017 0.9457
-8.9345 10.5954 -1.7017 0.9457
-10.1453 9.4425 -1.7017 0.9457
-11.2085 8.1522 -1.7017 0.9457
-12.1085 6.7432 -1.7017 0.9457
-12.8324 5.2362 -1.7017 0.9457
-13.3695 3.6529 -1.7017 0.9457
-13.7121 2.0166 -1.7017 0.9457
-13.8551 0.3508 -1.7017 0.9457
-13.7966 -1.3200 -1.7017 0.9457
-13.5372 -2.9717 -1.7017 0.9457
-13.0809 -4.5801 -1.7017 0.9457
-12.4343 -6.1218 -1.7017 0.9457
-11.6067 -7.5745 -1.7017 0.9457
-10.6102 -8.9170 -1.7017 0.9457
-9.4593 -10.1296 -1.7017 0.9457
-8.1708 -11.1949 -1.7017 0.9457
-6.7633 -12.0973 -1.7017 0.9457
-5.2575 -12.8237 -1.7017 0.9457
-3.6751 -13.3634 -1.7017 0.9457
-0.9441 -6.3464 -0.7878 0.9745
-0.1706 -6.3212 -0.7764 0.9748
0.5935 -6.3132 -0.7786 0.9748
1.3701 -6.2911 -0.7906 0.9744
2.2268 -6.3939 -0.8313 0.9731
6.1011 -12.4444 -1.7017 0.9457
7.5552 -11.6192 -1.7017 0.9457
8.8993 -10.6250 -1.7017 0.9457
10.1139 -9.4761 -1.7017 0.9457
11.1813 -8.1893 -1.7017 0.9457
12.0861 -6.7834 -1.7017 0.9457
12.8149 -5.2788 -1.7017 0.9457
13.3573 -3.6974 -1.7017 0.9457
13.7053 -2.0621 -1.7017 0.9457
13.8539 -0.3968 -1.7017 0.9457
13.8009 1.2742 -1.7017 0.9457
13.5470 2.9267 -1.7017 0.9457
13.0961 4.5366 -1.7017 0.9457
12.4545 6.0805 -1.7017 0.9457
11.6318 7.5359 -1.7017 0.9457
10.6398 8.8816 -1.7017 0.9457
9.4929 10.0981 -1.7017 0.9457
8.2079 11.1677 -1.7017 0.9457
6.8035 12.0748 -1.7017 0.9457
5.3001 12.8061 -1.7017 0.9457
3.7195 13.3511 -1.7017 0.9457
1.9077 12.5378 -1.5572 0.9502
0.3842 12.6762 -1.5572 0.9502
-1.1450 12.6303 -1.5572 0.9502
-2.9042 13.5519 -1.7017 0.9457
-4.5148 13.1036 -1.7017 0.9457
-6.0598 12.4646 -1.7017 0.9457
-7.5166 11.6443 -1.7017 0.9457
-8.8640 10.6545 -1.7017 0.9457
-10.0824 9.5097 -1.7017 0.9457
-11.1541 8.2264 -1.7017 0.9457
-12.0635 6.8236 -1.7017 0.9457
-12.7973 5.3213 -1.7017 0.9457
-13.3449 3.7417 -1.7017 0.9457
-13.6984 2.1076 -1.7017 0.9457
-13.8525 0.4429 -1.7017 0.9457
-13.8050 -1.2283 -1.7017 0.9457
-13.5567 -2.8817 -1.7017 0.9457
-13.1111 -4.4931 -1.7017 0.9457
-12.4747 -6.0391 -1.7017 0.9457
-11.6567 -7.4972 -1.7017 0.9457
-10.6692 -8.8462 -1.7017 0.9457
-9.5264 -10.0666 -1.7017 0.9457
-8.2450 -11.1404 -1.7017 0.9457
-6.8436 -12.0521 -1.7017 0.9457
-5.3426 -12.7885 -1.7017 0.9457
-3.7639 -13.3387 -1.7017 0.9457
-0.9874 -6.3476 -0.7888 0.9744
-0.2126 -6.3209 -0.7766 0.9748
0.5513 -6.3147 -0.7783 0.9748
1.3264 -6.2914 -0.7895 0.9744
2.1753 -6.3823 -0.8279 0.9732
6.0184 -12.4847 -1.7017 0.9457
7.4779 -11.6692 -1.7017 0.9457
8.8285 -10.6839 -1.7017 0.9457
10.0507 -9.5431 -1.7017 0.9457
11.1267 -8.2635 -1.7017 0.9457
12.0407 -6.8636 -1.7017 0.9457
12.7796 -5.3638 -1.7017 0.9457
13.3324 -3.7860 -1.7017 0.9457
13.6913 -2.1531 -1.7017 0.9457
13.8510 -0.4889 -1.7017 0.9457
13.8090 1.1825 -1.7017 0.9457
13.5662 2.8366 -1.7017 0.9457
13.1259 4.4495 -1.7017 0.9457
12.4947 5.9976 -1.7017 0.9457
11.6816 7.4584 -1.7017 0.9457
10.6985 8.8108 -1.7017 0.9457
9.5598 10.0349 -1.7017 0.9457
8.2819 11.1129 -1.7017 0.9457
6.8836 12.0293 -1.7017 0.9457
5.3851 12.7706 -1.7017 0.9457
3.8082 13.3261 -1.7017 0.9457
1.9910 12.5248 -1.5572 0.9502
0.4684 12.6734 -1.5572 0.9502
-1.0610 12.6376 -1.5572 0.9502
-2.8141 13.5709 -1.7017 0.9457
-4.4277 13.1333 -1.7017 0.9457
-5.9768 12.5046 -1.7017 0.9457
-7.4390 11.6940 -1.7017 0.9457
-8.7930 10.7131 -1.7017 0.9457
-10.0190 9.5764 -1.7017 0.9457
-11.0992 8.3004 -1.7017 0.9457
-12.0179 6.9035 -1.7017 0.9457
-12.7617 5.4062 -1.7017 0.9457
-13.3198 3.8303 -1.7017 0.9457
-13.6841 2.1986 -1.7017 0.9457
-13.8492 0.5349 -1.7017 0.9457
-13.8129 -1.1366 -1.7017 0.9457
-13.5755 -2.7915 -1.7017 0.9457
-13.1406 -4.4059 -1.7017 0.9457
-12.5145 -5.9561 -1.7017 0.9457
-11.7063 -7.4196 -1.7017 0.9457
-10.7277 -8.7751 -1.7017 0.9457
-9.5931 -10.0030 -1.7017 0.9457
-8.3188 -11.0854 -1.7017 0.9457
-6.9235 -12.0064 -1.7017 0.9457
-5.4274 -12.7527 -1.7017 0.9457
-3.8524 -13.3134 -1.7017 0.9457
-1.0309 -6.3489 -0.7898 0.9744
-0.2546 -6.3207 -0.7767 0.9748
0.5092 -6.3162 -0.7781 0.9748
1.2834 -6.2943 -0.7887 0.9744
2.1242 -6.3705 -0.8245 0.9733
5.9353 -12.5244 -1.7017 0.9457
7.4001 -11.7186 -1.7017 0.9457
8.7573 -10.7423 -1.7017 0.9457
9.9871 -9.6097 -1.7017 0.9457
11.0715 -8.3372 -1.7017 0.9457
11.9949 -6.9434 -1.7017 0.9457
12.7436 -5.4486 -1.7017 0.9457
13.3070 -3.8745 -1.7017 0.9457
13.6767 -2.2440 -1.7017 0.9457
13.8474 -0.5809 -1.7017 0.9457
13.8166 1.0907 -1.7017 0.9457
13.5847 2.7464 -1.7017 0.9457
13.1552 4.3621 -1.7017 0.9457
12.5342 5.9144 -1.7017 0.9457
11.7309 7.3807 -1.7017 0.9457
10.7568 8.7395 -1.7017 0.9457
9.6262 9.9711 -1.7017 0.9457
8.3556 11.0577 -1.7017 0.9457
6.9633 11.9833 -1.7017 0.9457
5.4698 12.7346 -1.7017 0.9457
3.8966 13.3005 -1.7017 0.9457
2.0742 12.5113 -1.5572 0.9502
0.5526 12.6700 -1.5572 0.9502
-0.9770 12.6444 -1.5572 0.9502
-2.7239 13.5893 -1.7017 0.9457
-4.3403 13.1624 -1.7017 0.9457
-5.8936 12.5441 -1.7017 0.9457
-7.3612 11.7431 -1.7017 0.9457
-8.7216 10.7714 -1.7017 0.9457
-9.9551 9.6428 -1.7017 0.9457
-11.0438 8.3740 -1.7017 0.9457
-11.9717 6.9833 -1.7017 0.9457
-12.7255 5.4909 -1.7017 0.9457
-13.2940 3.9187 -1.7017 0.9457
-13.6692 2.2895 -1.7017 0.9457
-13.8454 0.6269 -1.7017 0.9457
-13.8201 -1.0448 -1.7017 0.9457
-13.5938 -2.7013 -1.7017 0.9457
-13.1696 -4.3184 -1.7017 0.9457
-12.5538 -5.8728 -1.7017 0.9457
-11.7553 -7.3417 -1.7017 0.9457
-10.7858 -8.7037 -1.7017 0.9457
-9.6593 -9.9391 -1.7017 0.9457
-8.3923 -11.0298 -1.7017 0.9457
-7.0032 -11.9601 -1.7017 0.9457
-5.5121 -12.7163 -1.7017 0.9457
-3.9408 -13.2875 -1.7017 0.9457
-1.0749 -6.3529 -0.7911 0.9744
-0.2967 -6.3204 -0.7769 0.9748
0.4671 -6.3177 -0.7778 0.9748
1.2407 -6.2983 -0.7882 0.9745
2.0734 -6.3587 -0.8212 0.9734
5.8519 -12.5636 -1.7017 0.9457
7.3221 -11.7675 -1.7017 0.9457
8.6858 -10.8003 -1.7017 0.9457
9.9230 -9.6758 -1.7017 0.9457
11.0159 -8.4106 -1.7017 0.9457
11.9485 -7.0230 -1.7017 0.9457
12.7072 -5.5332 -1.7017 0.9457
13.2809 -3.9629 -1.7017 0.9457
13.6615 -2.3349 -1.7017 0.9457
13.8432 -0.6729 -1.7017 0.9457
13.8235 0.9988 -1.7017 0.9457
13.6027 2.6561 -1.7017 0.9457
13.1839 4.2746 -1.7017 0.9457
12.5733 5.8310 -1.7017 0.9457
11.7797 7.3025 -1.7017 0.9457
10.8147 8.6678 -1.7017 0.9457
9.6923 9.9069 -1.7017 0.9457
8.4289 11.0019 -1.7017 0.9457
7.0428 11.9368 -1.7017 0.9457
5.5543 12.6980 -1.7017 0.9457
3.9849 13.2744 -1.7017 0.9457
2.3575 13.6576 -1.7017 0.9457
0.6368 12.6661 -1.5572 0.9502
-0.8930 12.6506 -1.5572 0.9502
-2.6335 13.6071 -1.7017 0.9457
-4.2528 13.1910 -1.7017 0.9457
-5.8101 12.5829 -1.7017 0.9457
-7.2829 11.7918 -1.7017 0.9457
-8.6498 10.8291 -1.7017 0.9457
-9.8908 9.7087 -1.7017 0.9457
-10.9879 8.4471 -1.7017 0.9457
-11.9251 7.0626 -1.7017 0.9457
-12.6887 5.5754 -1.7017 0.9457
-13.2677 4.0069 -1.7017 0.9457
-13.6537 2.3802 -1.7017 0.9457
-13.8409 0.7189 -1.7017 0.9457
-13.8268 -0.9529 -1.7017 0.9457
-13.6114 -2.6109 -1.7017 0.9457
-13.1980 -4.2308 -1.7017 0.9457
-12.5926 -5.7892 -1.7017 0.9457
-11.8039 -7.2634 -1.7017 0.9457
-10.8434 -8.6319 -1.7017 0.9457
-9.7252 -9.8747 -1.7017 0.9457
-8.4654 -10.9738 -1.7017 0.9457
-7.0825 -11.9133 -1.7017 0.9457
-5.5964 -12.6794 -1.7017 0.9457
-4.0290 -13.2610 -1.7017 0.9457
-1.1201 -6.3629 -0.7933 0.9743
-0.3388 -6.3202 -0.7771 0.9748
0.4250 -6.3192 -0.7777 0.9748
1.1978 -6.3012 -0.7875 0.9745
2.0232 -6.3475 -0.8180 0.9735
5.7683 -12.6022 -1.7017 0.9457
7.2438 -11.8159 -1.7017 0.9457
8.6138 -10.8577 -1.7017 0.9457
9.8585 -9.7415 -1.7017 0.9457
10.9598 -8.4836 -1.7017 0.9457
11.9015 -7.1022 -1.7017 0.9457
12.6701 -5.6175 -1.7017 0.9457
13.2543 -4.0510 -1.7017 0.9457
13.6457 -2.4256 -1.7017 0.9457
13.8385 -0.7649 -1.7017 0.9457
13.8299 0.9070 -1.7017 0.9457
13.6200 2.5657 -1.7017 0.9457
13.2120 4.1870 -1.7017 0.9457
12.6117 5.7474 -1.7017 0.9457
11.8279 7.2241 -1.7017 0.9457
10.8720 8.5958 -1.7017 0.9457
9.7579 9.8423 -1.7017 0.9457
8.5018 10.9457 -1.7017 0.9457
7.1220 11.8897 -1.7017 0.9457
5.6385 12.6608 -1.7017 0.9457
4.0730 13.2476 -1.7017 0.9457
2.4483 13.6416 -1.7017 0.9457
0.7209 12.6616 -1.5572 0.9502
-0.8089 12.6562 -1.5572 0.9502
-2.5430 13.6243 -1.7017 0.9457
-4.1650 13.2190 -1.7017 0.9457
-5.7264 12.6213 -1.7017 0.9457
-7.2045 11.8399 -1.7017 0.9457
-8.5777 10.8863 -1.7017 0.9457
-9.8261 9.7742 -1.7017 0.9457
-10.9315 8.5199 -1.7017 0.9457
-11.8779 7.1417 -1.7017 0.9457
-12.6514 5.6595 -1.7017 0.9457
-13.2408 4.0950 -1.7017 0.9457
-13.6375 2.4709 -1.7017 0.9457
-13.8358 0.8108 -1.7017 0.9457
-13.8328 -0.8610 -1.7017 0.9457
-13.6285 -2.5204 -1.7017 0.9457
-13.2258 -4.1430 -1.7017 0.9457
-12.6308 -5.7054 -1.7017 0.9457
-11.8519 -7.1848 -1.7017 0.9457
-10.9005 -8.5596 -1.7017 0.9457
-9.7905 -9.8098 -1.7017 0.9457
-8.5381 -10.9173 -1.7017 0.9457
-7.1614 -11.8660 -1.7017 0.9457
-5.6805 -12.6420 -1.7017 0.9457
-4.1170 -13.2340 -1.7017 0.9457
-1.1656 -6.3729 -0.7955 0.9742
-0.3809 -6.3199 -0.7774 0.9748
0.3829 -6.3207 -0.7775 0.9748
1.1549 -6.3034 -0.7868 0.9745
1.9740 -6.3385 -0.8151 0.9736
5.6844 -12.6402 -1.7017 0.9457
7.1651 -11.8638 -1.7017 0.9457
8.5415 -10.9147 -1.7017 0.9457
9.7936 -9.8068 -1.7017 0.9457
10.9031 -8.5562 -1.7017 0.9457
11.8541 -7.1811 -1.7017 0.9457
12.6325 -5.7015 -1.7017 0.9457
13.2271 -4.1390 -1.7017 0.9457
13.6293 -2.5162 -1.7017 0.9457
13.8331 -0.8568 -1.7017 0.9457
13.8356 0.8151 -1.7017 0.9457
13.6368 2.4751 -1.7017 0.9457
13.2395 4.0991 -1.7017 0.9457
12.6496 5.6635 -1.7017 0.9457
11.8757 7.1454 -1.7017 0.9457
10.9289 8.5233 -1.7017 0.9457
9.8231 9.7773 -1.7017 0.9457
8.5744 10.8889 -1.7017 0.9457
7.2008 11.8421 -1.7017 0.9457
5.7225 12.6230 -1.7017 0.9457
4.1610 13.2202 -1.7017 0.9457
2.5388 13.6251 -1.7017 0.9457
0.8050 12.6565 -1.5572 0.9502
-0.7248 12.6613 -1.5572 0.9502
-2.4525 13.6409 -1.7017 0.9457
-4.0771 13.2463 -1.7017 0.9457
-5.6424 12.6590 -1.7017 0.9457
-7.1257 11.8875 -1.7017 0.9457
-8.5052 10.9430 -1.7017 0.9457
-9.7610 9.8393 -1.7017 0.9457
-10.8747 8.5924 -1.7017 0.9457
-11.8301 7.2205 -1.7017 0.9457
-12.6135 5.7435 -1.7017 0.9457
-13.2133 4.1829 -1.7017 0.9457
-13.6208 2.5615 -1.7017 0.9457
-13.8301 0.9027 -1.7017 0.9457
-13.8382 -0.7691 -1.7017 0.9457
-13.6449 -2.4298 -1.7017 0.9457
-13.2531 -4.0551 -1.7017 0.9457
-12.6684 -5.6214 -1.7017 0.9457
-11.8993 -7.1059 -1.7017 0.9457
-10.9571 -8.4870 -1.7017 0.9457
-9.8555 -9.7446 -1.7017 0.9457
-8.6104 -10.8604 -1.7017 0.9457
-7.2401 -11.8182 -1.7017 0.9457
-5.7644 -12.6039 -1.7017 0.9457
-4.2049 -13.2063 -1.7017 0.9457
-1.2113 -6.3829 -0.7977 0.9742
-0.4231 -6.3196 -0.7777 0.9748
0.3408 -6.3221 -0.7774 0.9748
1.1118 -6.3039 -0.7860 0.9745
1.9251 -6.3295 -0.8123 0.9737
5.6003 -12.6777 -1.7017 0.9457
7.0861 -11.9111 -1.7017 0.9457
8.4688 -10.9712 -1.7017 0.9457
9.7282 -9.8717 -1.7017 0.9457
10.8461 -8.6285 -1.7017 0.9457
11.8061 -7.2597 -1.7017 0.9457
12.5944 -5.7853 -1.7017 0.9457
13.1993 -4.2267 -1.7017 0.9457
13.6122 -2.6067 -1.7017 0.9457
13.8271 -0.9486 -1.7017 0.9457
13.8407 0.7231 -1.7017 0.9457
13.6529 2.3844 -1.7017 0.9457
13.2665 4.0110 -1.7017 0.9457
12.6870 5.5792 -1.7017 0.9457
11.9229 7.0663 -1.7017 0.9457
10.9853 8.4505 -1.7017 0.9457
9.8878 9.7118 -1.7017 0.9457
8.6465 10.8317 -1.7017 0.9457
7.2794 11.7940 -1.7017 0.9457
5.8063 12.5847 -1.7017 0.9457
4.2487 13.1923 -1.7017 0.9457
2.6293 13.6079 -1.7017 0.9457
0.8891 12.6509 -1.5572 0.9502
-0.6407 12.6659 -1.5572 0.9502
-2.3618 13.6569 -1.7017 0.9457
-3.9890 13.2731 -1.7017 0.9457
-5.5582 12.6963 -1.7017 0.9457
-7.0465 11.9346 -1.7017 0.9457
-8.4322 10.9993 -1.7017 0.9457
-9.6953 9.9040 -1.7017 0.9457
-10.8173 8.6645 -1.7017 0.9457
